0.0354 -0.2272 -0.0116
-0.0007 -0.2356 -0.0408
-0.0219 0.4578 -0.0957
0.0424 -0.4830 0.0068
-0.0632 0.5534 -0.0307
-0.0398 0.1616 0.0045
-0.0318 0.6832 -0.1511
0.0884 -0.5955 -0.0280
0.0386 -0.4501 0.0112
0.0727 -0.5938 -0.0492
0.0449 -0.3285 -0.0918
-0.0419 0.2759 -0.0838
0.0698 -0.5551 -0.0625
0.1061 -0.6971 0.0680
0.0582 -0.3839 -0.0766
-0.0774 0.6807 -0.1559
-0.0868 0.6997 -0.1426
-0.0506 0.4868 -0.1049
0.0667 -0.4493 -0.0362
0.1082 -0.7149 0.0592
0.0466 -0.3815 0.0119
-0.0226 0.0790 -0.0844
0.0808 -0.5729 0.0472
0.0706 -0.5772 -0.0547
0.0126 -0.0145 -0.1062
0.0095 0.1679 -0.0961
0.0113 0.0087 -0.0475
-0.0008 -0.0295 0.0166
0.0210 0.0076 -0.1053
-0.0057 0.0822 -0.0152
0.0689 -0.5981 -0.0465
0.0607 -0.4968 -0.0729
-0.0067 0.0336 -0.0965
-0.0442 0.6394 -0.0921
0.0514 -0.4512 0.0182
0.0472 -0.5565 -0.0286
-0.0334 0.4702 -0.1227
0.0996 -0.6827 0.0760
0.0003 -0.1661 0.0066
0.0801 -0.6828 -0.0240
0.0709 -0.4815 -0.0584
0.0564 -0.4910 -0.0714
0.0645 -0.4111 -0.0537
-0.0536 0.6885 -0.1689
-0.0144 0.3473 -0.1231
-0.0087 -0.1726 -0.0337
0.0254 -0.1604 -0.1009
-0.0354 0.3784 -0.1095
0.1384 -0.7163 -0.0150
-0.0371 0.1361 -0.0601
0.0461 -0.4826 -0.0619
-0.0502 0.2931 -0.0413
-0.0186 0.4939 -0.1185
0.0225 -0.0023 -0.0784
-0.0279 0.1661 0.0006
0.0806 -0.5765 -0.0479
0.0954 -0.6225 0.0452
-0.0173 0.2451 -0.0407
-0.0604 0.5299 -0.0264
0.0695 -0.6201 0.0679
0.0775 -0.5802 -0.0522
-0.0650 0.5999 -0.0838
0.1361 -0.6774 0.0408
-0.0143 0.1680 -0.0253
-0.0703 0.6579 -0.0410
0.0752 -0.5947 -0.0483
-0.0404 0.7081 -0.1291
0.0850 -0.5639 -0.0386
-0.0626 0.5491 -0.0727
-0.0411 0.1531 -0.0233
0.0431 -0.2170 -0.0600
-0.0444 0.4453 -0.1081
-0.0383 0.1191 -0.0120
0.0998 -0.6339 0.0268
-0.0579 0.5802 -0.0475
-0.0487 0.2457 -0.0166
0.0001 0.2859 -0.1124
-0.0579 0.3963 -0.0259
-0.0240 -0.0297 -0.0326
-0.0646 0.4956 -0.0256
-0.0402 0.6193 -0.0967
0.0382 -0.2995 0.0123
-0.0702 0.6536 -0.1473
0.0691 -0.6592 0.0807
-0.0206 0.4847 -0.1324
0.0047 0.2319 -0.1161
-0.0543 0.3422 -0.0372
0.0838 -0.6776 -0.0279
-0.0640 0.5888 -0.0765
0.0909 -0.6162 -0.0274
0.0490 -0.5466 -0.0045
-0.0280 0.0193 -0.0202
0.1096 -0.6855 -0.0554
0.0095 0.0976 -0.1105
-0.0627 0.5627 -0.0636
0.0598 -0.5717 -0.0485
-0.0456 0.2265 -0.0008
0.0932 -0.6538 -0.0840
-0.0741 0.6249 -0.0197
-0.0578 0.4378 -0.0569
-0.0092 -0.1278 0.0032
-0.0275 0.0312 -0.0034
-0.0087 0.2658 -0.1192
-0.0989 0.6942 -0.1202
0.0121 -0.0281 -0.0290
0.0779 -0.5647 -0.0542
-0.0738 0.6801 -0.0825
-0.0437 0.6911 -0.1115
0.0461 -0.4940 0.0156
-0.0370 0.2856 -0.0079
-0.0183 0.4808 -0.1139
-0.0078 0.3313 -0.1233
-0.0436 0.6162 -0.0869
0.0634 -0.4143 -0.0677
-0.0391 0.1348 -0.0449
-0.0502 0.5530 -0.0475
-0.0595 0.4346 -0.0366
0.0312 -0.4319 -0.0165
-0.0463 0.2250 -0.0317
-0.0083 -0.0684 -0.0824
-0.0023 0.3056 -0.1176
-0.0556 0.6255 -0.1503
0.1148 -0.6551 -0.0698
-0.0191 0.4993 -0.1312
-0.0683 0.5961 -0.0969
-0.0405 0.2237 0.0009
-0.0242 0.4682 -0.1285
-0.0419 0.6828 -0.1119
0.0740 -0.4966 -0.0362
0.0146 0.0328 -0.1090
0.0528 -0.3848 -0.0112
0.0842 -0.5666 -0.0410
0.0218 -0.2151 -0.0936
-0.0536 0.3852 -0.0126
0.0451 -0.2186 -0.0802
-0.0621 0.5473 -0.0440
0.0633 -0.6939 0.0081
-0.0432 0.6417 -0.0929
0.0945 -0.5926 0.0123
-0.0044 0.3074 -0.1239
0.0320 -0.2349 -0.0983
0.0686 -0.5894 0.0596
0.0297 -0.3568 -0.0766
0.0410 -0.1722 -0.0772
-0.0531 0.3117 -0.0263
0.0259 -0.3126 0.0154
-0.0375 0.3200 -0.0162
0.0262 -0.1713 -0.0101
0.0202 -0.3442 -0.0040
0.0198 -0.3622 -0.0218
-0.0040 -0.1189 0.0159
0.0500 -0.4663 -0.0704
-0.0799 0.6649 -0.0521
0.0568 -0.4204 -0.0787
-0.0421 0.5642 -0.0696
0.0431 -0.5203 -0.0205
-0.0478 0.6888 -0.1671
-0.0325 0.3032 -0.1044
-0.0346 0.3458 -0.0307
0.0827 -0.5770 -0.0455
0.0574 -0.5978 0.0124
-0.0230 0.6048 -0.1465
-0.0219 0.5178 -0.1182
-0.0234 0.5085 -0.1346
-0.0718 0.6239 -0.0936
0.0092 0.0291 -0.1072
0.0292 -0.1473 -0.1019
0.0994 -0.6865 -0.0463
-0.0555 0.4558 -0.0879
-0.0287 0.3954 -0.1164
0.0455 -0.3865 -0.0849
-0.0462 0.2170 -0.0108
-0.0764 0.6316 -0.0958
-0.0018 0.1827 -0.1167
-0.0037 0.3182 -0.1026
0.0895 -0.6190 0.0594
-0.0442 0.6310 -0.0898
-0.0547 0.3632 -0.0173
0.0379 -0.4811 -0.0178
0.0277 -0.0703 -0.1005
0.0745 -0.5719 -0.0564
-0.0106 0.0512 0.0059
-0.0597 0.5766 -0.0381
-0.0066 -0.1686 -0.0635
0.0197 -0.3037 -0.0734
0.1307 -0.7341 -0.0138
0.0028 0.2265 -0.0946
0.0397 -0.4108 -0.0748
0.0029 -0.1435 0.0130
-0.0608 0.4607 -0.0330
-0.0431 0.5876 -0.0745
0.0835 -0.5559 0.0081
-0.0083 -0.1463 -0.0201
-0.0458 0.5332 -0.1245
0.0888 -0.5838 -0.0250
0.0614 -0.6010 0.0387
-0.0849 0.7199 -0.1264
-0.0308 0.6752 -0.1638
-0.0291 0.6749 -0.1569
-0.0544 0.3334 -0.0179
-0.0673 0.6800 -0.1653
-0.0748 0.7257 -0.0941
0.0119 -0.0990 -0.0989
0.0116 0.1365 -0.1055
-0.0404 0.4135 -0.0301
0.0736 -0.5828 0.0658
-0.0137 0.4278 -0.1085
0.0876 -0.5704 -0.0136
0.0132 -0.2188 -0.0818
-0.0709 0.5871 -0.0230
0.0694 -0.6933 0.0700
0.0638 -0.5498 -0.0611
-0.0172 0.1909 -0.1056
0.0021 0.0251 -0.0214
-0.0479 0.2913 -0.0651
-0.0338 0.5862 -0.1085
0.0059 -0.2331 -0.0699
-0.0361 0.4801 -0.0638
-0.0440 0.5869 -0.0730
0.0190 -0.0991 -0.1036
0.0157 -0.3206 -0.0638
0.0551 -0.4595 0.0187
0.0371 -0.4619 -0.0530
0.0211 -0.3661 -0.0145
0.0630 -0.5822 -0.0481
-0.0415 0.5646 -0.0670
0.0523 -0.6440 0.0437
-0.0116 0.0097 -0.0890
-0.0385 0.2719 -0.0027
-0.0243 0.3337 -0.1155
-0.0285 0.0187 -0.0534
0.0559 -0.6007 -0.0172
-0.0340 0.5732 -0.1524
-0.0154 0.4053 -0.0965
-0.0667 0.6949 -0.1645
-0.0385 0.6841 -0.1708
-0.0072 0.1256 -0.0313
0.0904 -0.5854 0.0330
0.1357 -0.6870 -0.0333
-0.0103 0.1982 -0.0451
0.0667 -0.6014 -0.0440
0.0729 -0.6967 -0.0078
0.0452 -0.5429 -0.0246
0.0774 -0.5307 -0.0516
0.0957 -0.6391 0.0632
-0.0137 0.2925 -0.0646
0.0977 -0.6589 0.0833
-0.0019 0.0069 0.0021
0.0565 -0.4504 -0.0770
0.0737 -0.6166 -0.0397
-0.0452 0.6220 -0.1546
-0.0341 0.2242 -0.0037
0.0717 -0.7189 0.0616
-0.0051 0.2852 -0.0906
0.0544 -0.5886 -0.0269
0.0310 -0.4475 -0.0347
0.0076 0.1968 -0.1057
-0.0286 0.4738 -0.1263
0.0570 -0.6873 0.0651
-0.0618 0.4635 -0.0203
0.0070 -0.2933 -0.0416
-0.0432 0.6408 -0.1608
-0.0328 0.0905 -0.0586
-0.0149 0.1341 -0.0126
0.0456 -0.3446 0.0040
-0.0883 0.7121 -0.1312
0.0327 -0.0866 -0.0838
-0.0781 0.6732 -0.0440
0.0451 -0.5265 -0.0383
0.0328 -0.1815 -0.0269
-0.0185 -0.0899 -0.0378
-0.0143 0.3950 -0.1251
0.0751 -0.6725 -0.0218
0.0828 -0.5487 -0.0002
-0.0447 0.6737 -0.1724
0.0938 -0.6050 0.0576
-0.0773 0.7284 -0.1034
0.0607 -0.6383 0.0699
0.1107 -0.7084 0.0607
0.0738 -0.6758 0.0781
0.1188 -0.7427 -0.0074
-0.0194 0.4749 -0.1082
-0.0636 0.5402 -0.0845
-0.0515 0.3743 -0.0772
0.0474 -0.2351 -0.0758
-0.0332 0.0739 -0.0504
-0.0131 0.1217 -0.1006
0.0659 -0.6086 0.0560
-0.0324 0.0489 -0.0367
0.0686 -0.6369 0.0783
-0.0327 0.1637 0.0028
-0.0359 0.5469 -0.0858
0.0666 -0.4600 -0.0653
0.0583 -0.5755 -0.0455
0.1411 -0.7114 0.0236
0.0662 -0.4931 0.0130
0.0326 -0.4220 0.0051
0.0518 -0.4019 -0.0833
-0.0603 0.5138 -0.0174
-0.0273 0.6446 -0.1485
-0.0265 -0.0151 -0.0438
0.0505 -0.5752 -0.0177
-0.0108 0.3294 -0.0862
-0.0032 0.3206 -0.1232
0.0295 -0.0418 -0.0816
-0.0033 0.3340 -0.1122
-0.0328 0.1056 0.0078
-0.0475 0.6907 -0.1686
0.0025 -0.2510 -0.0564
0.0113 0.1224 -0.0874
-0.0407 0.5133 -0.0609
-0.0139 -0.1394 -0.0453
0.0390 -0.4293 -0.0686
0.0412 -0.4251 0.0154
-0.0217 0.2508 -0.1081
-0.0509 0.2640 -0.0108
0.1002 -0.6415 0.0518
0.0579 -0.7030 0.0209
0.0254 -0.0139 -0.0998
0.0071 -0.0314 -0.1017
-0.0627 0.5640 -0.0293
-0.0449 0.1900 -0.0376
-0.0402 0.1590 -0.0576
-0.0725 0.6002 -0.0185
0.0602 -0.4337 -0.0761
-0.0178 0.0970 -0.0923
0.0725 -0.5479 -0.0616
-0.0606 0.4666 -0.0152
-0.0431 0.5356 -0.0562
-0.0061 0.3641 -0.1187
-0.0310 0.5709 -0.1465
-0.0142 0.4507 -0.1175
0.0022 0.2638 -0.1060
-0.0423 0.5816 -0.1470
-0.0725 0.6310 -0.0220
-0.0403 0.5287 -0.0663
0.0373 -0.2629 -0.0028
-0.0338 0.2249 -0.0883
0.0196 -0.3664 -0.0479
-0.0777 0.6885 -0.0473
0.0906 -0.6217 0.0494
0.0518 -0.2827 -0.0776
-0.0047 0.1569 -0.0520
0.0567 -0.6462 0.0066
0.0121 -0.2787 -0.0074
-0.0395 0.4252 -0.0366
-0.0574 0.3785 -0.0190
0.0151 0.0780 -0.1070
-0.0193 0.4093 -0.1237
-0.0023 -0.1755 -0.0115
-0.0351 0.0972 -0.0025
0.0731 -0.5176 0.0041
0.0660 -0.5392 -0.0657
-0.0334 0.6802 -0.1661
0.0126 -0.0744 -0.0014
0.0766 -0.6127 -0.0397
-0.0666 0.4849 -0.0098
-0.0066 0.2448 -0.0716
-0.0382 0.1948 -0.0744
0.0383 -0.1455 -0.0858
0.0202 -0.2768 -0.0809
-0.0633 0.5102 -0.0252
0.0294 -0.0472 -0.0926
-0.0273 0.5757 -0.1445
-0.0235 0.6113 -0.1554
-0.0308 0.5085 -0.0917
0.0539 -0.5719 -0.0391
0.0610 -0.7128 0.0569
-0.0379 0.2114 0.0025
-0.0325 0.6825 -0.1414
-0.0281 0.5292 -0.1061
-0.0488 0.5010 -0.0288
-0.0587 0.5426 -0.0300
-0.0548 0.5221 -0.0273
0.0281 -0.3995 -0.0036
-0.0305 0.6581 -0.1702
-0.0089 0.3830 -0.1097
-0.0383 0.1662 0.0052
0.0246 -0.3998 -0.0338
0.0366 -0.4346 -0.0642
0.0551 -0.3149 -0.0680
0.0237 -0.2791 -0.0840
-0.0258 0.4382 -0.1260
-0.0216 0.2087 -0.0219
-0.0546 0.3880 -0.0576
0.0020 0.0622 -0.0362
0.0732 -0.6491 -0.0297
-0.0523 0.6801 -0.1709
-0.0008 -0.1609 -0.0758
0.0289 -0.4214 -0.0487
0.0094 0.1515 -0.1093
-0.0342 0.7022 -0.1476
-0.0168 0.4723 -0.1228
-0.0162 0.0142 0.0065
-0.0233 0.5451 -0.1265
0.0980 -0.6768 0.0778
0.0164 -0.3198 -0.0139
-0.0503 0.2644 -0.0255
0.0542 -0.5713 0.0113
0.0386 -0.3109 -0.0930
-0.0273 0.5096 -0.1331
-0.0420 0.4081 -0.0249
-0.0261 0.2916 -0.0330
-0.0977 0.7131 -0.1117
0.1313 -0.7220 0.0163
0.0810 -0.6832 0.0820
-0.0186 0.4563 -0.1298
-0.0877 0.6629 -0.0831
0.0014 0.0451 -0.1047
-0.0638 0.5317 -0.0463
0.0437 -0.2807 -0.0170
0.0517 -0.4380 -0.0788
-0.0842 0.7073 -0.1415
-0.0319 0.0577 -0.0146
0.0445 -0.3203 -0.0030
-0.0123 0.4285 -0.1235
0.0032 0.1777 -0.1161
-0.0237 0.4014 -0.1194
-0.0247 0.5429 -0.1190
0.0915 -0.6380 0.0521
0.0525 -0.6742 0.0420
-0.0286 0.5953 -0.1268
0.0497 -0.2603 -0.0674
-0.0152 0.1070 -0.0034
-0.0941 0.7263 -0.1015
-0.0368 0.6647 -0.1719
-0.0101 0.4013 -0.1165
-0.0422 0.4541 -0.0370
-0.0141 -0.0870 -0.0685
-0.0245 0.0829 0.0088
0.0861 -0.5736 0.0290
-0.0611 0.5188 -0.0743
0.0980 -0.6159 0.0012
-0.0057 0.0469 -0.0044
-0.0426 0.2893 -0.0051
0.1148 -0.6662 0.0588
-0.0238 0.5481 -0.1313
0.0774 -0.6575 -0.0294
0.0750 -0.6720 -0.0218
0.0619 -0.6652 0.0683
0.0724 -0.6371 0.0847
0.0413 -0.3763 0.0141
-0.0328 0.3936 -0.0481
-0.0215 0.1720 -0.0097
-0.0087 0.3571 -0.1013
-0.0393 0.4167 -0.1088
0.0202 -0.3450 -0.0616
0.0489 -0.3006 -0.0867
0.0204 0.0636 -0.0900
0.0145 -0.3378 -0.0299
-0.0109 0.3945 -0.1232
0.0576 -0.6229 0.0442
0.0569 -0.4617 0.0179
0.0592 -0.3612 -0.0538
-0.0571 0.6534 -0.1632
0.0639 -0.6295 -0.0253
-0.0149 0.4509 -0.1286
0.0351 -0.2833 -0.0929
-0.0277 0.0503 -0.0687
0.1047 -0.6684 0.0687
0.0279 -0.3923 -0.0623
-0.0439 0.4956 -0.0388
0.0109 -0.2108 0.0172
-0.0198 0.5091 -0.1254
-0.0421 0.3608 -0.0123
0.0136 -0.1674 0.0179
0.0661 -0.5097 0.0228
-0.0420 0.5443 -0.0586
-0.0092 -0.0640 0.0274
-0.0313 0.2385 -0.0097
-0.0047 0.1163 -0.1064
0.0566 -0.4389 0.0108
0.0341 -0.1089 -0.0913
0.1178 -0.7345 0.0291
-0.0520 0.2903 -0.0163
-0.0171 0.3795 -0.0822
0.0037 -0.2333 -0.0163
0.0811 -0.5935 -0.0434
-0.0722 0.6279 -0.1189
0.0647 -0.5827 0.0527
0.0735 -0.6112 -0.0431
0.0550 -0.4103 0.0004
0.1267 -0.7380 0.0091
-0.0799 0.6526 -0.0655
0.0298 -0.1319 -0.0470
0.0646 -0.6158 -0.0341
-0.0389 0.1257 0.0002
0.1100 -0.7204 0.0558
-0.0002 -0.0383 -0.0941
-0.0417 0.3870 -0.0216
-0.0293 0.2436 -0.0978
-0.0107 0.3033 -0.1212
-0.0243 0.5969 -0.1388
0.0696 -0.4533 -0.0519
0.0003 0.1179 -0.1101
0.0802 -0.6792 0.0837
0.0516 -0.3034 -0.0450
0.0043 0.1039 -0.0619
-0.0456 0.3209 -0.0817
0.0418 -0.5009 -0.0032
0.0581 -0.5279 0.0271
-0.0720 0.6963 -0.1551
-0.0447 0.2162 -0.0532
-0.0207 -0.0019 0.0057
0.0702 -0.6805 -0.0096
0.1171 -0.7259 0.0374
-0.0039 0.3330 -0.1193
0.0341 -0.4494 -0.0033
0.0397 -0.2596 -0.0960
0.0504 -0.3407 -0.0227
-0.0427 0.6888 -0.1125
-0.0562 0.3669 -0.0260
0.0211 -0.0839 -0.0371
-0.0377 0.5241 -0.1293
0.0635 -0.4673 0.0037
0.0470 -0.2458 -0.0866
-0.0329 0.6330 -0.1257
0.0583 -0.5545 0.0252
-0.0253 0.4308 -0.0763
0.0073 -0.2778 -0.0261
0.0186 -0.1724 -0.0967
-0.0216 -0.0341 -0.0628
0.0792 -0.6028 -0.0425
0.0597 -0.6800 0.0074
0.0384 -0.4894 -0.0387
0.0476 -0.5448 -0.0393
0.0333 -0.1395 -0.0984
-0.0182 0.3313 -0.1211
-0.0375 0.1224 0.0016
-0.0884 0.7072 -0.0984
-0.0379 0.6365 -0.1619
-0.0615 0.7027 -0.1570
-0.0233 -0.0297 -0.0056
0.0312 -0.1249 -0.1013
0.1037 -0.6960 -0.0422
-0.0580 0.5298 -0.1034
-0.0234 0.1754 -0.0970
0.0546 -0.6327 0.0208
0.0807 -0.5325 -0.0343
0.0504 -0.3418 -0.0869
-0.0610 0.4784 -0.0526
0.0613 -0.4401 -0.0108
-0.0665 0.6351 -0.1292
-0.0157 0.2605 -0.1131
-0.0622 0.5763 -0.0608
0.0420 -0.3980 -0.0800
-0.0593 0.4313 -0.0247
0.1131 -0.7265 0.0469
-0.0424 0.1631 -0.0067
0.0791 -0.5536 -0.0523
0.0167 0.0349 -0.0737
-0.0813 0.7246 -0.0996
0.0380 -0.1649 -0.0918
-0.0620 0.5039 -0.0504
-0.0576 0.4086 -0.0191
0.0603 -0.3788 -0.0663
-0.0570 0.3791 -0.0332
-0.0524 0.6496 -0.1650
0.0961 -0.6086 0.0251
-0.0183 0.0881 0.0047
0.0251 -0.0632 -0.0654
0.0742 -0.4998 -0.0500
-0.0593 0.5025 -0.0872
0.0153 -0.1806 -0.0921
0.0256 -0.1357 -0.0210
-0.0584 0.5830 -0.1320
-0.0629 0.5592 -0.0672
-0.0172 -0.0118 -0.0770
0.0546 -0.5142 -0.0624
-0.0296 0.6265 -0.1607
-0.0656 0.5672 -0.0840
-0.0421 0.3450 -0.0941
-0.0404 0.6145 -0.1566
-0.0551 0.4271 -0.0747
0.1023 -0.6442 -0.0028
0.0724 -0.5299 -0.0618
-0.0425 0.5876 -0.0751
-0.0661 0.6039 -0.1268
-0.0644 0.5659 -0.1009
0.0067 -0.2300 0.0052
0.0212 0.0380 -0.0996
0.0331 -0.1853 -0.1002
0.0061 -0.0154 -0.0099
0.0045 -0.1237 -0.0880
-0.0433 0.5658 -0.0656
0.0344 -0.3358 -0.0851
0.0771 -0.5486 0.0234
0.0265 -0.0032 -0.0915
0.0601 -0.6853 0.0644
-0.0430 0.5727 -0.0694
-0.0224 0.3457 -0.0578
-0.0444 0.1824 0.0022
-0.0365 0.6758 -0.1245
0.0583 -0.3979 -0.0300
-0.0019 0.2542 -0.1184
-0.0699 0.6998 -0.1559
0.0262 -0.1078 -0.1033
0.0194 0.0502 -0.0845
-0.0266 0.6418 -0.1451
0.0252 0.0820 -0.1063
0.0212 -0.0364 -0.1067
0.0153 -0.2677 0.0084
-0.0453 0.2028 -0.0184
-0.0168 -0.0756 -0.0193
0.0606 -0.5622 -0.0540
0.0442 -0.5047 -0.0512
0.0523 -0.6660 0.0096
0.0334 -0.1176 -0.0727
0.0682 -0.5180 -0.0681
0.0645 -0.6525 -0.0152
-0.0118 -0.1214 -0.0282
-0.0006 0.1958 -0.0767
0.0700 -0.5006 -0.0637
-0.0506 0.5187 -0.0325
0.0886 -0.6833 -0.0289
-0.0511 0.3420 -0.0615
-0.0932 0.6650 -0.1106
0.0623 -0.4676 -0.0732
0.0268 -0.2498 -0.0928
-0.0459 0.2813 -0.0022
-0.0475 0.2620 -0.0487
-0.0488 0.2811 -0.0050
-0.0532 0.3398 -0.0105
-0.0095 0.1885 -0.1107
0.0799 -0.5321 -0.0129
0.0498 -0.5667 -0.0080
0.0455 -0.2688 -0.0935
-0.0285 0.2487 -0.0163
-0.0550 0.5898 -0.1367
0.0659 -0.6617 0.0777
-0.0421 0.4613 -0.1127
0.0909 -0.6822 -0.0382
-0.0161 0.0440 -0.0878
0.0741 -0.6083 -0.0440
-0.0498 0.4071 -0.0930
-0.0321 0.5173 -0.1307
0.0427 -0.2453 -0.0333
-0.0057 -0.1990 -0.0500
-0.0423 0.2429 -0.0718
0.0317 -0.3098 0.0166
-0.0472 0.6509 -0.1678
0.0709 -0.6599 -0.0238
0.0513 -0.5374 -0.0497
-0.1015 0.7096 -0.1009
0.0272 -0.3723 0.0057
-0.0312 0.6031 -0.1610
-0.0323 0.6955 -0.1538
0.0555 -0.3348 -0.0783
0.0415 -0.1888 -0.0885
-0.0132 -0.1242 -0.0585
-0.0388 0.7092 -0.1417
0.1020 -0.6692 0.0776
-0.0380 0.1066 -0.0290
0.0718 -0.6153 -0.0402
0.0401 -0.2079 -0.0961
-0.0587 0.4831 -0.0750
0.0482 -0.5243 0.0093
-0.0197 -0.0749 -0.0479
-0.0255 0.0496 0.0070
-0.0129 -0.0710 0.0035
-0.0274 0.6543 -0.1606
-0.0400 0.7073 -0.1364
0.0906 -0.6364 0.0486
-0.0258 0.5422 -0.1370
-0.0222 0.5269 -0.1319
-0.0530 0.3066 -0.0125
-0.0332 0.1088 -0.0657
0.0194 -0.3188 0.0016
0.0572 -0.6984 0.0221
0.1264 -0.7023 0.0460
-0.0309 0.5540 -0.1384
0.0132 -0.0674 -0.0138
0.0698 -0.4868 -0.0129
-0.0326 0.1442 -0.0772
