-0.0455 -0.6159 -0.1597
0.0699 0.6486 0.0792
-0.1747 -0.0522 0.0264
-0.1857 0.2844 -0.0737
0.1130 -0.3938 -0.0683
-0.1284 0.0550 0.0832
-0.1947 0.1261 -0.0832
0.0702 -0.0770 -0.1408
-0.1700 -0.2573 -0.1213
-0.0712 -0.7549 -0.0898
0.1090 -0.5916 0.0495
0.0268 -0.7686 -0.0380
-0.0919 0.7206 0.0481
-0.0144 0.1498 0.1003
-0.1542 -0.2299 -0.1350
0.0329 -0.3137 -0.1693
0.0785 -0.2452 -0.1317
-0.1809 -0.4350 0.0332
-0.1295 -0.7494 -0.0272
0.0711 -0.7124 -0.0643
0.0206 0.6483 -0.1609
0.0393 0.0514 0.0737
-0.0669 -0.7492 0.0773
0.0894 0.1925 -0.0128
-0.1868 -0.6114 -0.0187
0.0153 0.8003 -0.0045
-0.1456 -0.7268 -0.0122
-0.1820 -0.4835 0.0162
-0.1631 0.5494 -0.1252
0.0478 -0.6681 -0.1191
0.0950 -0.1876 0.0069
-0.1104 0.6293 -0.1636
0.0703 -0.2957 -0.1500
0.0631 0.6901 0.0692
-0.0745 0.2577 -0.1818
0.0996 -0.2598 0.0204
-0.1335 0.4855 -0.1521
-0.0646 -0.1016 -0.1873
-0.0784 -0.2620 -0.1761
0.1114 -0.3100 -0.0642
0.0773 -0.0292 -0.1295
-0.0960 -0.7243 -0.1049
-0.0074 0.4192 0.1126
0.1113 -0.4610 -0.0726
-0.1545 -0.0867 -0.1460
-0.1428 0.0699 0.0661
0.0774 -0.7155 0.0013
-0.1016 -0.7821 0.0029
-0.1013 0.0360 -0.1801
0.1223 -0.5950 -0.0006
-0.0595 0.4998 -0.1823
0.0306 0.4671 -0.1571
0.1060 -0.5651 -0.0798
-0.1258 0.6787 0.0221
-0.1327 0.0990 0.0753
0.1048 -0.1842 -0.0650
0.1136 -0.6232 0.0320
0.0842 -0.1082 -0.1215
-0.0045 -0.3992 -0.1791
0.0567 -0.1746 0.0676
-0.0751 0.7748 -0.1186
-0.0264 0.7601 -0.1233
-0.0622 -0.7694 -0.0790
-0.0793 0.7876 0.0147
0.0461 -0.6865 -0.1088
-0.0705 -0.4592 -0.1655
-0.1666 0.2723 -0.0283
-0.1092 0.7602 -0.1136
0.0538 0.0057 0.0548
0.0790 -0.6597 0.0745
0.0001 -0.3834 0.1160
0.0588 0.5564 -0.1287
-0.1059 0.7791 -0.0139
0.0956 0.6325 -0.0346
-0.1782 -0.2939 -0.0849
0.0071 0.2606 -0.1724
0.1052 0.4283 0.0226
-0.0429 0.7604 0.0627
-0.1906 -0.0282 -0.0067
-0.1022 -0.6059 0.1135
0.0180 0.2441 -0.1694
-0.1738 0.0154 0.0170
0.0505 -0.0828 0.0672
-0.0498 -0.0131 -0.1927
-0.1220 0.1518 -0.1695
0.0649 -0.1431 -0.1503
-0.1035 0.7233 -0.1476
-0.1711 -0.6819 -0.0079
0.0435 -0.5964 0.1117
-0.0670 0.7783 -0.1175
0.0911 0.3350 -0.0386
-0.0430 -0.7712 -0.0756
0.0746 0.3180 -0.1107
-0.1885 -0.1251 -0.1029
0.1031 0.0341 -0.0592
-0.1902 -0.3253 -0.0066
-0.1170 0.7358 -0.1280
-0.0986 0.7970 -0.0590
0.0968 -0.4156 -0.1064
-0.1225 -0.7307 0.0402
-0.0377 0.4430 -0.1864
-0.1149 -0.1935 -0.1667
-0.0525 -0.5563 -0.1709
-0.0892 -0.1519 0.1126
-0.0412 -0.6861 0.1179
-0.1330 0.1301 0.0736
-0.1300 0.7474 -0.1011
0.0921 0.1504 -0.0129
0.1204 -0.5567 -0.0293
0.0409 0.3930 -0.1575
-0.1789 0.6097 -0.0710
0.0617 -0.6778 0.0870
-0.1926 0.1331 -0.0411
-0.1875 0.3406 -0.0857
-0.1067 -0.7622 -0.0543
-0.0777 -0.3086 0.1160
0.0761 0.1007 -0.1178
-0.1220 -0.1810 0.0951
0.1035 -0.6799 -0.0135
0.1058 -0.2836 0.0054
0.0512 -0.4613 0.1103
0.0192 -0.5456 -0.1610
-0.0382 -0.7833 -0.0645
-0.1731 0.3518 -0.0461
-0.1961 -0.1126 -0.0511
-0.1709 -0.4370 -0.1045
-0.0481 -0.7477 -0.0973
-0.0629 0.7115 0.0845
0.0310 0.6813 0.1042
0.0695 0.5971 0.1085
-0.1828 0.5570 -0.0853
-0.0879 0.6335 -0.1738
0.0409 0.7509 0.0406
-0.1978 -0.0865 -0.0675
-0.1285 -0.1349 0.0862
-0.0833 -0.6116 0.1216
-0.1951 0.0808 -0.0491
-0.1074 0.5501 -0.1664
-0.1104 -0.6543 -0.1338
-0.0455 -0.6754 -0.1436
-0.1333 0.5881 -0.1519
-0.1085 0.1255 0.0874
0.0889 0.6682 0.0049
0.0123 0.7186 0.0894
0.0141 -0.5576 0.1237
-0.1456 -0.4016 -0.1350
-0.0852 0.5006 0.0918
-0.1335 0.7434 -0.0446
-0.1452 0.7310 -0.0821
0.0903 0.5761 -0.0691
0.0359 -0.0058 -0.1797
-0.0961 0.8008 -0.0329
0.0352 0.0881 0.0800
-0.1802 0.6300 -0.0807
-0.1666 0.6685 -0.0871
0.0550 -0.3283 -0.1597
0.0278 0.7284 0.0786
-0.1072 -0.5429 0.1143
0.0675 0.4067 -0.1194
-0.0721 0.7770 0.0300
0.0754 -0.1357 0.0419
-0.0034 0.4995 0.1189
0.0568 -0.7352 -0.0419
-0.1709 0.5975 -0.1135
-0.0929 0.3244 -0.1751
-0.1832 0.5045 -0.1081
-0.1840 -0.2005 -0.0981
-0.0062 0.4996 -0.1772
0.0812 0.2225 -0.1075
0.0017 0.3301 -0.1786
-0.1302 -0.6733 -0.1150
-0.1092 -0.6303 -0.1432
-0.0932 0.7911 -0.0852
0.0933 -0.0940 -0.0121
0.0216 0.0014 -0.1874
-0.1991 -0.0463 -0.0702
-0.0536 -0.1092 0.1120
-0.0491 -0.0014 0.1095
-0.0733 0.3397 -0.1789
-0.1597 -0.3445 0.0684
-0.0724 0.6224 0.1018
-0.1751 0.6422 -0.0965
0.0383 0.1610 -0.1616
0.0020 -0.4723 0.1249
0.0698 -0.6979 0.0616
0.0719 -0.4954 0.0971
-0.0576 0.8034 0.0146
0.0825 0.2273 0.0144
0.0871 0.3052 -0.0056
0.0215 -0.7290 0.0831
-0.0054 0.8134 -0.0462
-0.1606 -0.4734 0.0629
-0.1884 -0.5307 -0.0127
-0.1484 0.2348 0.0160
-0.0577 -0.7792 -0.0669
-0.0132 0.7000 0.1038
-0.1631 -0.0138 0.0404
0.0399 -0.0185 0.0672
-0.1572 -0.7035 -0.0582
-0.0829 0.4901 -0.1720
-0.1717 -0.5243 -0.0934
0.0784 0.3400 0.0832
-0.1680 0.4011 -0.0190
0.0808 -0.5726 0.0853
0.0866 0.4499 0.0737
0.0919 0.2439 -0.0273
0.0316 -0.4035 -0.1679
-0.0694 -0.5619 -0.1634
-0.1132 -0.7369 -0.0869
-0.0597 0.7539 0.0607
-0.1261 0.6006 0.0378
-0.1765 -0.6465 0.0196
0.0460 0.0591 0.0693
-0.0410 -0.7210 0.1022
-0.0729 0.2880 -0.1823
-0.0363 -0.4761 -0.1741
-0.0093 -0.1645 -0.1866
0.0199 -0.3694 0.1072
-0.1548 0.3136 -0.0010
-0.0417 0.6328 0.1158
-0.1447 -0.4899 -0.1358
-0.1989 -0.0080 -0.0855
-0.0073 -0.2024 -0.1855
-0.1370 0.6947 -0.1305
0.0919 -0.6119 -0.0962
-0.0484 0.7599 0.0621
0.0373 -0.7654 0.0050
-0.0360 0.7934 -0.0988
-0.0948 -0.7574 0.0523
0.0604 -0.4224 -0.1518
-0.1542 0.7135 -0.0613
-0.0425 0.7218 0.0893
0.1151 0.4663 -0.0300
-0.0005 -0.4441 0.1198
0.0293 0.5510 -0.1597
-0.1051 -0.4421 -0.1563
-0.0818 -0.2797 0.1167
0.0249 -0.1255 0.0893
0.1206 -0.4892 -0.0416
-0.0837 -0.1771 -0.1803
0.0670 0.6785 0.0780
-0.1669 -0.6697 -0.0765
-0.1852 -0.2719 0.0059
-0.0277 -0.0832 -0.1897
-0.1698 0.1137 -0.1355
-0.0667 0.7344 -0.1484
0.0883 0.3529 0.0379
-0.1852 -0.5578 -0.0662
-0.1922 0.0813 -0.1007
0.1020 -0.3914 0.0551
-0.0196 -0.6026 0.1299
0.0737 0.1731 -0.1232
-0.0795 0.4246 -0.1789
0.0268 -0.7481 0.0629
0.0009 0.6856 -0.1554
-0.1435 0.5101 -0.1446
-0.1369 0.2121 -0.1606
0.1142 -0.5300 -0.0579
-0.0035 -0.2832 -0.1840
0.0911 0.4116 0.0784
-0.0293 0.6386 -0.1783
-0.1716 -0.5986 -0.0920
-0.0765 -0.3489 -0.1726
0.0546 -0.6333 -0.1259
0.0139 -0.7868 -0.0003
0.0663 0.5722 0.1067
0.0743 0.5716 0.0751
0.0401 -0.5464 0.1169
0.0946 0.2614 -0.0545
0.1200 -0.4853 0.0028
0.0461 -0.7370 0.0542
-0.0810 0.3581 0.0900
-0.1731 0.1738 -0.0051
-0.0973 0.2104 0.0892
-0.0865 0.6758 0.0735
0.1018 -0.0025 -0.0310
0.1108 -0.5112 0.0388
0.0484 0.6498 -0.1296
0.0856 -0.6706 -0.0784
-0.1770 0.3074 -0.0627
-0.1881 -0.2383 -0.0713
-0.1847 -0.3315 -0.0555
-0.0423 0.7317 -0.1479
-0.1500 0.6982 -0.0249
-0.1880 -0.1520 -0.0177
-0.1848 -0.0456 -0.1136
0.0470 -0.6088 -0.1371
0.0881 -0.3250 -0.1227
0.0540 0.0907 0.0564
-0.1691 -0.3483 -0.1079
-0.1456 -0.1127 0.0695
0.0815 0.0125 -0.1186
-0.1867 -0.2382 -0.0175
-0.1560 0.0485 -0.1496
-0.0700 -0.5001 -0.1656
-0.0496 -0.7043 -0.1301
0.0393 0.3512 0.1104
0.0488 0.5110 -0.1434
0.1029 -0.4644 0.0528
-0.1332 0.1601 -0.1625
-0.1399 0.2846 -0.1498
-0.0293 0.0579 -0.1915
-0.1523 -0.7006 0.0141
0.0777 0.7012 0.0237
-0.1826 0.2200 -0.0504
0.1073 -0.2145 -0.0282
0.0249 0.7725 -0.0676
-0.1877 -0.6304 -0.0048
-0.1269 -0.0591 -0.1622
0.1172 -0.4369 0.0299
-0.1944 0.1007 -0.0896
-0.1681 -0.6010 0.0480
0.0314 0.1216 0.0841
-0.0293 -0.5586 0.1342
-0.0066 0.3296 0.1106
-0.1640 0.6150 -0.0230
-0.1865 0.4284 -0.1021
-0.1762 0.5223 -0.0607
0.0886 -0.6593 0.0623
-0.1110 0.3736 -0.1642
-0.0761 -0.7766 0.0498
-0.0141 -0.7630 -0.0788
-0.1562 0.0316 0.0574
0.0201 0.7908 -0.0506
-0.1589 -0.1673 -0.1385
-0.1838 -0.3676 0.0197
0.0592 0.7479 0.0049
-0.1414 -0.5477 -0.1319
-0.0264 -0.0895 0.1081
0.0444 0.7610 0.0181
-0.1715 0.6576 -0.0474
-0.1142 -0.3548 -0.1574
-0.1588 -0.6197 0.0587
-0.0885 0.0252 0.1049
0.0357 0.1197 -0.1737
-0.1730 0.4609 -0.1199
0.0669 0.5992 0.1087
0.0909 0.2774 -0.0176
-0.1617 -0.6564 -0.0888
-0.0332 -0.2660 0.1165
-0.1918 0.0400 -0.0169
-0.1092 -0.5886 -0.1478
-0.0053 0.7543 -0.1119
0.0455 -0.5611 -0.1465
0.0602 -0.5827 0.1022
0.0536 0.2008 -0.1440
-0.0935 0.3396 0.0773
0.0250 0.6211 -0.1629
-0.0980 0.7979 -0.0253
0.0811 0.3224 0.0590
-0.1873 0.4698 -0.0888
-0.0652 0.7023 -0.1637
-0.0858 -0.7732 -0.0606
0.1198 -0.4006 0.0014
-0.0079 -0.6722 -0.1424
-0.1501 -0.6904 -0.0824
0.0766 0.2712 0.0423
-0.0371 -0.3891 0.1176
-0.1403 -0.3064 -0.1463
-0.1153 -0.5202 -0.1491
-0.1374 0.7193 -0.1137
0.0225 -0.7481 0.0675
0.1036 0.5958 0.0132
0.0338 -0.4638 0.1179
0.0139 -0.7642 0.0570
0.0283 -0.4587 -0.1659
0.0662 -0.1009 -0.1463
0.0514 0.2979 -0.1483
0.0138 0.7989 -0.0375
-0.1299 -0.0120 -0.1638
-0.1591 0.2025 -0.1434
-0.1810 0.3819 -0.0662
-0.1124 0.4629 -0.1661
-0.1468 0.5461 0.0083
-0.0057 -0.5539 -0.1655
0.1040 -0.3243 0.0347
-0.0421 0.7944 0.0357
-0.1529 0.4172 -0.1385
-0.1689 -0.6885 -0.0484
-0.0481 0.7748 -0.1188
-0.1672 -0.1704 0.0420
-0.1179 0.7332 0.0073
-0.0090 -0.7443 -0.0943
-0.0797 -0.6940 -0.1282
-0.0510 0.2778 -0.1852
-0.1233 -0.6915 0.0686
-0.1924 0.1941 -0.0528
-0.1734 0.2455 -0.1245
-0.1372 0.1533 0.0633
-0.0981 0.1044 -0.1792
-0.1318 0.2886 0.0406
0.0768 0.6116 0.0729
-0.1019 0.7857 -0.0813
-0.1222 0.7139 -0.1401
-0.0340 0.2776 -0.1854
-0.1372 -0.6105 -0.1311
-0.1151 0.7806 -0.0478
0.0232 0.7812 0.0186
0.0886 -0.1895 -0.1138
-0.0881 -0.7571 -0.0811
-0.1898 0.2437 -0.0719
-0.0325 0.8002 -0.0889
-0.1355 0.5220 -0.1539
-0.0464 -0.6496 -0.1524
0.0889 -0.0632 -0.1064
-0.1402 -0.7301 -0.0521
-0.1032 0.6770 -0.1599
0.1035 -0.4954 -0.0849
-0.1017 -0.0514 -0.1744
-0.1970 0.0032 -0.0360
-0.1322 -0.2138 -0.1572
0.0617 0.3560 -0.1319
0.0661 0.4773 -0.1204
-0.0014 0.7176 -0.1394
-0.0730 -0.0295 -0.1895
0.1079 -0.2791 -0.0508
-0.1079 0.7866 -0.0647
-0.0774 -0.1140 0.1125
-0.0256 0.7387 0.0811
-0.0753 -0.7747 0.0530
-0.0051 -0.3119 -0.1838
0.0015 0.2043 -0.1778
-0.1385 0.4420 -0.1520
0.0622 0.7266 0.0355
-0.0859 -0.2346 0.1104
-0.0925 0.7713 -0.1151
0.1122 0.5151 0.0021
0.0535 0.6984 0.0803
-0.1848 0.2984 -0.1021
-0.0831 0.5253 -0.1753
-0.1059 0.7049 -0.1540
-0.1342 0.3670 0.0294
-0.1225 0.2625 0.0529
-0.1385 -0.7184 -0.0743
0.0425 0.7700 -0.0229
-0.1534 0.6710 -0.1121
-0.0046 0.7617 0.0654
-0.1276 -0.3068 0.0993
-0.0760 -0.4507 0.1220
0.0805 0.4530 -0.0957
-0.0745 -0.3901 0.1203
0.0364 -0.6700 0.1055
-0.1308 0.5143 0.0418
-0.0818 0.7525 -0.1341
-0.0587 0.1534 0.1058
-0.0733 -0.7271 -0.1103
0.0306 0.7425 0.0647
-0.1678 0.5793 -0.0426
0.0680 0.7000 -0.0616
-0.1190 0.7685 -0.0865
-0.0038 -0.6380 -0.1512
-0.0843 0.8009 -0.0055
0.0739 0.7265 -0.0123
-0.0372 0.6794 -0.1675
-0.0787 -0.6423 -0.1498
0.0640 0.1923 0.0482
-0.0511 0.7899 0.0348
-0.0918 -0.1128 -0.1802
-0.0225 -0.0245 0.1062
-0.0400 -0.2357 0.1159
0.0651 -0.4954 -0.1375
0.0708 -0.6493 -0.1086
-0.0396 -0.4115 -0.1764
-0.0502 0.7828 -0.1122
-0.0542 -0.1749 -0.1835
-0.0859 -0.0091 0.1078
-0.1047 -0.7500 -0.0772
0.0452 0.7242 -0.0830
-0.0377 0.7811 -0.1117
0.1001 -0.6382 -0.0711
0.0243 0.7054 -0.1261
0.0055 0.7992 0.0189
-0.1040 0.2316 -0.1720
-0.1195 -0.7591 -0.0360
-0.1643 0.3283 -0.1291
0.0364 -0.7254 0.0753
0.0132 -0.6267 0.1253
-0.1143 0.4145 0.0564
0.0739 0.6706 0.0620
0.0520 0.7204 0.0621
0.0133 -0.7430 0.0774
-0.1162 0.7556 -0.1115
0.0826 0.5420 0.0681
0.0055 0.6272 -0.1751
0.0139 -0.7642 0.0570
-0.1434 -0.7191 -0.0663
0.0753 0.0374 0.0223
-0.0727 0.7396 0.0601
-0.0992 -0.6540 0.1021
-0.0444 -0.1556 0.1181
0.0959 -0.5524 0.0714
-0.1343 -0.5036 0.0923
-0.1022 0.7660 -0.1137
-0.0049 0.6590 0.1146
0.0045 0.6069 0.1264
-0.1798 -0.1368 0.0246
-0.1840 0.0322 -0.1208
0.0268 0.7678 0.0382
-0.0693 0.0702 -0.1901
0.0630 0.2587 -0.1320
-0.1890 -0.5032 -0.0423
0.0846 0.3757 0.0745
0.0908 0.3063 -0.0540
-0.0428 0.0428 0.1061
0.0547 0.0915 -0.1504
0.1051 -0.6372 0.0552
-0.0120 -0.6993 -0.1249
-0.0764 0.1861 -0.1865
0.1121 0.5537 -0.0324
-0.0436 -0.2623 -0.1826
0.0207 -0.7828 -0.0083
-0.0130 0.7245 -0.1410
-0.0743 -0.3736 0.1229
0.1037 -0.0639 -0.0598
-0.1181 -0.1200 -0.1686
0.0933 -0.6227 0.0753
-0.1573 -0.6689 0.0386
0.0825 0.5280 -0.0940
-0.1552 -0.6503 0.0552
0.1196 -0.5643 0.0168
0.0756 -0.1700 -0.1394
-0.1365 0.0041 0.0810
0.0603 -0.0472 -0.1566
-0.0817 0.7362 -0.1463
-0.1034 0.7938 -0.0477
0.0597 -0.6960 -0.0905
0.0702 0.6450 0.0909
0.0184 0.0741 -0.1845
-0.0640 0.8056 0.0092
-0.0510 0.7609 -0.1327
0.0728 -0.3735 -0.1401
-0.1748 -0.5179 0.0412
-0.1795 0.4345 -0.0536
-0.1907 -0.5868 -0.0352
0.0961 0.6368 0.0675
-0.0368 -0.3767 -0.1817
0.0955 0.0663 -0.0196
0.0596 -0.1332 -0.1584
-0.0282 0.0785 -0.1885
-0.0813 -0.7810 0.0387
0.0041 -0.5198 0.1254
0.0915 -0.5385 -0.1018
-0.0847 -0.7743 0.0460
0.0627 -0.4004 0.0928
0.1012 0.6538 0.0512
-0.1419 -0.2118 0.0791
-0.1624 0.0607 0.0360
-0.1381 -0.7380 -0.0269
-0.1978 0.0392 -0.0778
0.0746 -0.2086 0.0526
-0.0970 -0.6261 0.1112
-0.1836 -0.4095 0.0077
-0.1492 0.7007 -0.1035
-0.0641 -0.7236 0.0945
0.0066 -0.7054 0.1066
0.0884 0.6439 0.0460
-0.1729 -0.3125 0.0523
-0.1656 0.1390 0.0275
-0.1811 -0.6285 -0.0619
0.0861 0.3671 -0.0733
-0.1428 0.4420 0.0166
-0.1859 -0.4558 -0.0127
-0.1077 -0.0278 0.1012
-0.0126 0.6905 -0.1567
-0.0349 -0.0071 -0.1936
-0.0840 0.8060 -0.0179
0.0691 0.5097 0.0938
0.0360 -0.7564 0.0365
0.0433 0.5921 -0.1521
-0.0965 0.7453 -0.1370
-0.1199 -0.2384 0.0969
0.0097 0.7607 0.0610
-0.0318 0.1515 -0.1863
0.0917 -0.6939 0.0135
-0.0309 -0.0359 -0.1963
0.0225 -0.7601 0.0529
-0.1862 -0.4172 -0.0457
-0.1843 -0.3754 -0.0278
-0.1527 -0.7155 -0.0398
-0.0599 0.6502 -0.1816
-0.1917 -0.0702 -0.0287
-0.1266 -0.7439 -0.0560
-0.1244 -0.5843 0.1006
0.0824 -0.6098 0.0887
0.1203 -0.5212 -0.0136
-0.0003 -0.2785 0.1078
-0.1332 0.6594 -0.1481
-0.0156 -0.1738 0.1114
0.1037 -0.3682 -0.0874
-0.1001 0.1737 -0.1780
0.0264 -0.0368 0.0743
-0.1262 0.3799 -0.1544
0.0680 -0.7178 0.0394
-0.0746 -0.4256 -0.1699
0.0953 -0.6497 0.0615
0.1134 -0.3447 0.0228
0.0435 0.4517 0.1132
-0.0601 -0.5969 0.1287
0.0072 -0.7805 -0.0457
-0.0147 0.3660 0.1133
-0.0619 0.3369 0.1051
-0.0328 -0.4379 0.1231
0.0937 0.0642 -0.0967
0.1069 -0.6610 -0.0403
-0.1738 0.0886 0.0091
0.0572 -0.7372 0.0197
-0.0013 0.6238 0.1217
0.0304 -0.1893 -0.1769
0.0412 0.5046 0.1150
0.1027 -0.1409 -0.0467
0.1038 0.1131 -0.0681
-0.1836 0.5835 -0.0833
-0.0377 0.7811 -0.1117
0.0220 0.6714 -0.1450
-0.1593 0.5615 -0.0191
0.0743 -0.5825 -0.1218
0.0935 0.5642 0.0391
-0.0331 0.1956 0.1021
0.1223 -0.4475 -0.0182
-0.1788 -0.5693 0.0180
0.0821 0.6512 -0.0565
-0.1138 -0.7693 -0.0022
0.0839 -0.4543 -0.1218
0.1063 0.0825 -0.0377
0.0555 0.0310 -0.1539
-0.1325 0.7524 -0.0745
0.0680 -0.3361 0.0818
-0.0433 -0.7608 -0.0868
-0.0891 -0.1519 -0.1819
-0.1531 -0.0447 0.0598
-0.1561 -0.6437 -0.1037
-0.0871 0.7846 -0.1023
0.1009 0.3802 -0.0112
0.0153 -0.7795 0.0276
-0.1452 -0.6774 0.0548
0.1162 -0.4106 -0.0503
0.1107 0.4495 -0.0104
-0.0512 -0.7290 -0.1138
0.0986 -0.2262 -0.0839
-0.0987 -0.7796 0.0177
-0.1464 -0.6292 0.0716
-0.0611 0.8057 0.0100
-0.1594 0.1004 0.0439
-0.1438 0.3768 -0.1471
0.0387 -0.2518 -0.1734
-0.1034 0.6548 0.0561
0.1076 -0.6591 0.0279
0.0601 0.2419 0.0671
-0.1928 0.2544 -0.0792
-0.1281 0.7415 -0.0249
0.0988 -0.0097 -0.0872
0.0341 -0.3720 -0.1726
0.1011 -0.1077 -0.0796
-0.1641 -0.6988 -0.0298
-0.0393 0.1542 0.1036
0.1148 -0.3179 -0.0118
-0.0489 0.5909 0.1161
-0.0636 -0.5472 0.1268
-0.1932 -0.1589 -0.0746
-0.0682 0.7689 -0.1250
0.0277 -0.7024 0.0987
-0.0084 0.7014 -0.1514
-0.0707 0.1878 0.1027
-0.0731 0.6903 0.0854
-0.1763 0.3738 -0.1207
-0.1815 -0.3793 -0.0772
0.0919 0.1522 -0.0995
0.0771 -0.6305 0.0883
-0.1451 0.2073 0.0407
-0.0099 -0.2399 -0.1824
-0.1628 -0.0806 0.0443
0.0214 0.7386 -0.1015
-0.1751 -0.2134 0.0343
-0.1442 -0.0139 -0.1543
0.0675 0.0597 -0.1332
0.0515 0.7480 -0.0464
-0.1550 -0.5607 0.0684
-0.1167 -0.2271 -0.1644
-0.0298 0.7762 0.0553
-0.0975 0.7833 -0.0961
-0.1014 -0.6971 -0.1190
-0.1881 -0.2031 -0.0497
-0.1861 -0.2829 -0.0361
-0.0888 0.7665 0.0265
-0.1971 -0.0750 -0.0784
-0.1125 -0.2886 -0.1619
0.0765 -0.0397 0.0261
-0.0346 0.2095 -0.1832
-0.0206 0.7801 -0.1028
0.0595 0.1324 -0.1433
0.0295 -0.0970 -0.1801
0.1228 -0.6286 -0.0175
0.0630 0.4348 -0.1348
-0.1878 0.4156 -0.0883
-0.1058 0.5639 0.0684
-0.0191 0.5840 -0.1805
0.0393 0.6377 0.1152
0.0658 0.6217 -0.1082
0.0917 -0.1446 -0.0975
-0.0205 -0.1239 -0.1923
-0.0861 0.6861 -0.1644
0.0351 0.2297 0.0996
0.0781 0.1311 0.0203
-0.1833 -0.6626 -0.0292
0.0233 -0.6231 -0.1500
-0.1079 0.2960 -0.1628
-0.0455 0.3761 -0.1863
0.1143 -0.4388 -0.0619
0.1092 0.5023 -0.0604
0.0288 0.7880 -0.0106
0.1016 0.4113 -0.0573
-0.1119 -0.7699 0.0149
-0.0867 0.5640 -0.1750
-0.1590 0.4844 -0.0181
-0.1569 0.6328 -0.1273
0.0644 0.2855 0.0779
-0.0979 -0.7598 -0.0697
0.0046 -0.0840 0.0986
0.0102 0.1346 -0.1794
-0.1573 0.6295 -0.0197
-0.1244 -0.7356 -0.0731
-0.0052 0.8059 -0.0613
0.0805 0.3751 0.0902
0.0474 0.0414 -0.1643
0.0975 0.1949 -0.0856
0.0632 -0.4381 0.1013
0.0952 -0.2762 -0.1034
0.0709 0.5844 0.0859
0.0932 0.4859 0.0473
-0.1666 0.6811 -0.0822
-0.0936 0.7997 -0.0148
-0.1879 0.0857 -0.1056
-0.0689 -0.0017 -0.1873
0.0405 -0.5283 -0.1530
0.1142 -0.6011 -0.0477
0.0218 -0.0271 -0.1864
-0.1834 0.1660 -0.1110
-0.1858 -0.0993 -0.0018
-0.1291 0.0626 -0.1657
0.0386 -0.7102 -0.0943
0.0959 0.1079 -0.0204
-0.1700 -0.3966 0.0535
-0.1853 -0.1805 0.0065
0.0429 0.6866 -0.1148
0.0943 -0.6891 -0.0497
0.1038 0.1587 -0.0428
-0.1130 0.0426 0.0890
-0.1808 -0.1556 0.0170
-0.1196 -0.3876 0.1046
0.0504 -0.7491 -0.0191
-0.0699 0.1364 -0.1898
-0.1049 -0.7801 -0.0160
-0.1925 0.1679 -0.0666
-0.0895 -0.7784 0.0343
-0.0184 0.8057 -0.0733
-0.1259 -0.7185 0.0468
-0.1549 -0.2821 -0.1356
0.0657 0.0022 -0.1430
-0.0033 -0.4692 -0.1764
0.0344 0.7114 0.0858
0.0645 -0.2129 -0.1535
-0.0140 0.2111 0.1016
-0.0104 -0.6188 -0.1599
0.0885 0.4035 0.0584
0.0889 0.2782 -0.0778
-0.0670 0.7569 -0.1345
-0.1601 -0.5680 -0.1149
0.1173 -0.3654 -0.0307
0.0520 0.1531 0.0668
0.0894 -0.6706 0.0515
0.0591 0.6702 -0.0889
0.0881 -0.7008 -0.0304
0.0286 -0.7726 -0.0235
-0.1565 -0.3265 -0.1298
0.0182 -0.7632 -0.0630
-0.0609 0.6744 -0.1711
-0.1587 0.1148 -0.1437
0.0268 -0.7733 0.0182
-0.1822 -0.4595 -0.0672
0.0309 -0.6745 -0.1247
-0.0204 0.0682 0.1015
0.1149 -0.6492 0.0154
0.0893 -0.2994 0.0524
-0.0572 0.6000 -0.1849
-0.0408 0.6996 -0.1618
-0.0839 -0.7808 0.0362
0.0005 0.4191 -0.1743
-0.0073 0.7917 -0.0782
-0.0725 -0.7354 -0.1047
0.0552 0.7352 0.0402
-0.1066 0.7766 -0.0952
0.0024 -0.7917 -0.0293
-0.1169 -0.7097 -0.1017
-0.1882 0.2149 -0.0934
-0.0385 -0.3254 -0.1826
0.0586 0.7096 0.0641
-0.1130 -0.7706 -0.0104
0.0111 -0.6785 0.1153
-0.1306 -0.0785 0.0811
-0.0799 -0.6791 0.1101
