0.0654 -0.2164 0.0285
-0.0566 -0.2548 -0.0371
0.0144 0.4744 -0.1020
0.0183 -0.5044 0.0452
-0.0722 0.6290 0.0189
-0.0708 0.1826 0.0714
-0.0103 0.7113 -0.1477
0.1278 -0.6325 -0.0694
0.0176 -0.4712 0.0600
0.0737 -0.6577 -0.1049
0.0602 -0.3575 -0.1515
-0.0873 0.2670 -0.1055
0.0746 -0.6183 -0.1168
0.1146 -0.7280 0.0703
0.0954 -0.4102 -0.1230
-0.0931 0.7067 -0.1653
-0.1073 0.7302 -0.1385
-0.0999 0.4939 -0.1152
0.1004 -0.4522 -0.0352
0.1168 -0.7473 0.0572
0.0603 -0.3738 0.0695
-0.0759 0.0639 -0.1121
0.0944 -0.5831 0.0565
0.0718 -0.6394 -0.1094
0.0217 -0.0244 -0.1630
0.0565 0.1595 -0.1259
0.0373 0.0155 -0.0324
0.0073 -0.0126 0.0769
0.0539 0.0001 -0.1557
0.0166 0.0939 0.0365
0.0598 -0.6567 -0.1006
0.0673 -0.5471 -0.1334
-0.0287 0.0220 -0.1433
-0.0276 0.6793 -0.0494
0.0587 -0.4507 0.0762
-0.0082 -0.6010 -0.0574
-0.0395 0.4812 -0.1685
0.1065 -0.7111 0.0833
-0.0226 -0.1578 0.0641
0.0681 -0.7091 -0.0605
0.1065 -0.5070 -0.0979
0.0537 -0.5380 -0.1335
0.1075 -0.4171 -0.0712
-0.0541 0.7177 -0.1790
0.0001 0.3480 -0.1774
-0.0613 -0.1929 -0.0184
0.0342 -0.1784 -0.1594
-0.0685 0.3750 -0.1487
0.1506 -0.7433 -0.0198
-0.0894 0.1237 -0.0614
0.0194 -0.5214 -0.1172
-0.0985 0.3087 -0.0169
0.0214 0.5219 -0.1440
0.0606 0.0032 -0.0926
-0.0329 0.1848 0.0675
0.1042 -0.6284 -0.0980
0.1173 -0.6423 0.0314
0.0047 0.2606 -0.0048
-0.0696 0.6004 0.0298
0.0542 -0.6313 0.0828
0.0940 -0.6425 -0.1057
-0.0942 0.6394 -0.0505
0.1571 -0.7018 0.0383
0.0061 0.1820 0.0200
-0.0631 0.6942 -0.0124
0.0823 -0.6593 -0.1036
-0.0254 0.7408 -0.1192
0.1170 -0.5948 -0.0749
-0.0920 0.5780 -0.0417
-0.0870 0.1524 0.0178
0.0832 -0.2145 -0.0665
-0.0926 0.4477 -0.1343
-0.0802 0.1210 0.0396
0.1088 -0.6445 0.0299
-0.0586 0.6644 0.0039
-0.0920 0.2586 0.0384
0.0424 0.2869 -0.1568
-0.0979 0.4310 0.0308
-0.0718 -0.0475 -0.0116
-0.0869 0.5568 0.0238
-0.0225 0.6501 -0.0652
0.0516 -0.2853 0.0639
-0.1007 0.6790 -0.1261
0.0558 -0.6824 0.0927
0.0032 0.5142 -0.1794
0.0428 0.2269 -0.1653
-0.1011 0.3668 -0.0034
0.0746 -0.7012 -0.0711
-0.0926 0.6306 -0.0370
0.1254 -0.6546 -0.0769
0.0084 -0.5676 -0.0010
-0.0710 0.0127 0.0170
0.1101 -0.6971 -0.0832
0.0346 0.0898 -0.1649
-0.0898 0.6117 -0.0176
0.0405 -0.6305 -0.1025
-0.0795 0.2484 0.0691
0.0909 -0.6885 -0.0935
-0.0685 0.6790 -0.0049
-0.0986 0.4559 -0.0344
-0.0378 -0.1175 0.0483
-0.0607 0.0372 0.0502
0.0044 0.2580 -0.1736
-0.1250 0.7191 -0.1067
0.0367 -0.0176 0.0042
0.0998 -0.6190 -0.1049
-0.0747 0.6967 -0.0511
-0.0268 0.7201 -0.0960
0.0301 -0.5193 0.0598
-0.0394 0.3139 0.0630
0.0232 0.5052 -0.1379
0.0185 0.3326 -0.1771
-0.0250 0.6596 -0.0401
0.1045 -0.4344 -0.1065
-0.0900 0.1264 -0.0346
-0.0415 0.6231 0.0149
-0.0971 0.4702 0.0100
-0.0089 -0.4501 0.0046
-0.0946 0.2341 0.0014
-0.0571 -0.0822 -0.1170
0.0359 0.3038 -0.1657
-0.0777 0.6518 -0.1375
0.1185 -0.6739 -0.0839
0.0125 0.5275 -0.1702
-0.1072 0.6121 -0.0757
-0.0612 0.2466 0.0712
-0.0103 0.4880 -0.1793
-0.0260 0.7113 -0.0955
0.1124 -0.5087 -0.0511
0.0384 0.0195 -0.1643
0.0813 -0.3791 0.0259
0.1210 -0.6063 -0.0832
0.0100 -0.2336 -0.1492
-0.0786 0.4252 0.0601
0.0872 -0.2243 -0.1131
-0.0786 0.6120 0.0098
0.0415 -0.7216 -0.0111
-0.0260 0.6775 -0.0508
0.1113 -0.6002 0.0152
0.0243 0.3014 -0.1763
0.0390 -0.2580 -0.1576
0.0706 -0.6088 0.0633
-0.0013 -0.3822 -0.1258
0.0832 -0.1742 -0.1018
-0.0977 0.3283 0.0227
0.0130 -0.3005 0.0766
-0.0359 0.3494 0.0510
0.0498 -0.1599 0.0345
-0.0136 -0.3670 0.0406
-0.0259 -0.3772 -0.0007
-0.0206 -0.1087 0.0747
0.0388 -0.5036 -0.1313
-0.0791 0.6899 -0.0311
0.0792 -0.4518 -0.1372
-0.0188 0.6173 -0.0129
0.0001 -0.5459 -0.0340
-0.0443 0.7170 -0.1770
-0.0721 0.2960 -0.1396
-0.0285 0.3718 0.0259
0.1187 -0.6332 -0.0954
0.0141 -0.6142 0.0187
0.0038 0.6274 -0.1516
0.0174 0.5447 -0.1383
-0.0024 0.5408 -0.1771
-0.1001 0.6393 -0.0604
0.0209 0.0147 -0.1619
0.0480 -0.1597 -0.1607
0.0941 -0.6963 -0.0811
-0.0964 0.4614 -0.0942
-0.0352 0.3958 -0.1654
0.0479 -0.4180 -0.1487
-0.0890 0.2304 0.0497
-0.1029 0.6408 -0.0684
0.0111 0.1717 -0.1715
0.0417 0.3202 -0.1307
0.1058 -0.6467 0.0459
-0.0262 0.6703 -0.0423
-0.0941 0.3978 0.0508
-0.0026 -0.5038 -0.0111
0.0603 -0.0791 -0.1499
0.0848 -0.6335 -0.1100
-0.0039 0.0654 0.0723
-0.0604 0.6614 0.0064
-0.0709 -0.1896 -0.0744
-0.0258 -0.3245 -0.1098
0.1389 -0.7603 -0.0187
0.0462 0.2218 -0.1183
0.0184 -0.4389 -0.1304
-0.0094 -0.1288 0.0755
-0.0904 0.5074 0.0187
-0.0191 0.6459 -0.0163
0.1050 -0.5604 0.0219
-0.0507 -0.1598 0.0138
-0.0623 0.5445 -0.1515
0.1264 -0.6047 -0.0575
0.0443 -0.6110 0.0455
-0.0962 0.7521 -0.1214
-0.0108 0.6993 -0.1679
-0.0059 0.6997 -0.1573
-0.0969 0.3637 0.0428
-0.0788 0.7044 -0.1782
-0.0734 0.7588 -0.0891
0.0030 -0.1110 -0.1540
0.0513 0.1336 -0.1502
-0.0331 0.4541 0.0347
0.0822 -0.6042 0.0663
0.0282 0.4521 -0.1358
0.1150 -0.5794 -0.0246
-0.0194 -0.2356 -0.1238
-0.0763 0.6637 0.0023
0.0590 -0.7246 0.0696
0.0589 -0.6126 -0.1168
-0.0329 0.1789 -0.1531
0.0232 0.0341 0.0212
-0.0968 0.2904 -0.0667
-0.0062 0.6072 -0.0980
-0.0513 -0.2537 -0.0934
-0.0201 0.5077 -0.0233
-0.0226 0.6448 -0.0148
0.0251 -0.1115 -0.1625
-0.0419 -0.3453 -0.0863
0.0661 -0.4568 0.0720
-0.0074 -0.4923 -0.0904
-0.0202 -0.3840 0.0155
0.0478 -0.6414 -0.1015
-0.0129 0.6255 -0.0054
0.0207 -0.6624 0.0422
-0.0526 -0.0034 -0.1271
-0.0451 0.3007 0.0699
-0.0324 0.3274 -0.1629
-0.0831 0.0054 -0.0553
0.0029 -0.6418 -0.0492
-0.0347 0.5944 -0.1678
0.0236 0.4162 -0.1116
-0.0765 0.7263 -0.1702
-0.0281 0.7130 -0.1787
0.0128 0.1358 0.0078
0.1094 -0.5971 0.0342
0.1480 -0.7004 -0.0572
0.0181 0.2086 -0.0201
0.0529 -0.6602 -0.0979
0.0565 -0.7228 -0.0318
-0.0083 -0.5774 -0.0440
0.1066 -0.5683 -0.0954
0.0946 -0.6477 0.0800
0.0158 0.3024 -0.0495
0.1034 -0.6810 0.0960
0.0089 0.0219 0.0625
0.0683 -0.4881 -0.1410
0.0700 -0.6789 -0.0961
-0.0523 0.6443 -0.1531
-0.0426 0.2450 0.0661
0.0655 -0.7543 0.0552
0.0336 0.2823 -0.1045
0.0085 -0.6349 -0.0674
-0.0189 -0.4766 -0.0451
0.0515 0.1932 -0.1466
-0.0236 0.4909 -0.1753
0.0398 -0.7202 0.0609
-0.0874 0.5179 0.0402
-0.0487 -0.3158 -0.0425
-0.0359 0.6562 -0.1710
-0.0840 0.0778 -0.0601
-0.0024 0.1488 0.0437
0.0657 -0.3336 0.0527
-0.1036 0.7445 -0.1263
0.0752 -0.0897 -0.1108
-0.0709 0.6994 -0.0262
0.0011 -0.5643 -0.0772
0.0616 -0.1695 0.0038
-0.0706 -0.1096 -0.0243
0.0111 0.4078 -0.1820
0.0600 -0.7020 -0.0637
0.1051 -0.5524 0.0136
-0.0398 0.6982 -0.1857
0.1136 -0.6311 0.0447
-0.0805 0.7627 -0.0964
0.0407 -0.6545 0.0807
0.1215 -0.7392 0.0589
0.0645 -0.7034 0.0865
0.1243 -0.7709 -0.0134
0.0204 0.4978 -0.1270
-0.0979 0.5572 -0.0711
-0.0988 0.3764 -0.0815
0.0915 -0.2440 -0.1039
-0.0846 0.0609 -0.0460
-0.0330 0.1092 -0.1471
0.0498 -0.6182 0.0698
-0.0843 0.0400 -0.0209
0.0502 -0.6530 0.0919
-0.0478 0.1822 0.0706
-0.0076 0.5740 -0.0553
0.1001 -0.4864 -0.1116
0.0354 -0.6327 -0.0993
0.1557 -0.7396 0.0153
0.0896 -0.4923 0.0532
0.0051 -0.4415 0.0511
0.0663 -0.4341 -0.1452
-0.0672 0.5844 0.0387
-0.0030 0.6672 -0.1457
-0.0805 -0.0312 -0.0366
-0.0049 -0.6123 -0.0362
0.0274 0.3324 -0.0924
0.0305 0.3198 -0.1730
0.0718 -0.0354 -0.1002
0.0415 0.3423 -0.1513
-0.0562 0.1171 0.0757
-0.0456 0.7237 -0.1757
-0.0587 -0.2705 -0.0659
0.0537 0.1186 -0.1094
-0.0233 0.5550 -0.0111
-0.0717 -0.1574 -0.0459
0.0097 -0.4579 -0.1195
0.0317 -0.4313 0.0746
-0.0350 0.2391 -0.1553
-0.0950 0.2841 0.0526
0.1021 -0.6516 0.0667
0.0377 -0.7323 0.0063
0.0636 -0.0169 -0.1432
0.0019 -0.0425 -0.1560
-0.0677 0.6448 0.0167
-0.0995 0.1858 -0.0152
-0.0929 0.1484 -0.0576
-0.0735 0.6722 0.0014
0.0867 -0.4644 -0.1311
-0.0545 0.0848 -0.1304
0.0857 -0.6055 -0.1147
-0.0796 0.5247 0.0460
-0.0242 0.5903 0.0018
0.0351 0.3728 -0.1636
-0.0207 0.5989 -0.1718
0.0255 0.4771 -0.1509
0.0462 0.2623 -0.1416
-0.0494 0.5951 -0.1570
-0.0642 0.6820 -0.0069
-0.0206 0.5679 -0.0184
0.0578 -0.2501 0.0444
-0.0858 0.2131 -0.1114
-0.0358 -0.3928 -0.0549
-0.0715 0.7100 -0.0228
0.1056 -0.6398 0.0423
0.0945 -0.2965 -0.1126
0.0213 0.1642 -0.0369
0.0020 -0.6690 -0.0153
-0.0236 -0.2751 0.0366
-0.0305 0.4617 0.0245
-0.0958 0.4137 0.0434
0.0500 0.0703 -0.1564
-0.0028 0.4199 -0.1787
-0.0395 -0.1756 0.0305
-0.0711 0.1075 0.0552
0.0974 -0.5212 0.0305
0.0689 -0.5997 -0.1225
-0.0174 0.7066 -0.1731
0.0310 -0.0585 0.0507
0.0853 -0.6814 -0.0975
-0.0830 0.5500 0.0398
0.0264 0.2496 -0.0664
-0.0880 0.1837 -0.0898
0.0806 -0.1551 -0.1197
-0.0094 -0.2967 -0.1283
-0.0800 0.5754 0.0262
0.0735 -0.0550 -0.1282
-0.0034 0.6003 -0.1690
-0.0006 0.6314 -0.1607
0.0010 0.5242 -0.0834
0.0158 -0.6239 -0.0860
0.0487 -0.7494 0.0486
-0.0544 0.2336 0.0738
-0.0124 0.7114 -0.1356
0.0062 0.5483 -0.1093
-0.0417 0.5678 0.0332
-0.0636 0.6166 0.0263
-0.0552 0.5924 0.0330
-0.0048 -0.4185 0.0372
-0.0127 0.6805 -0.1788
0.0342 0.3967 -0.1436
-0.0645 0.1870 0.0740
-0.0261 -0.4240 -0.0273
-0.0008 -0.4629 -0.1099
0.0989 -0.3247 -0.0940
0.0026 -0.2993 -0.1345
-0.0202 0.4468 -0.1793
-0.0100 0.2238 0.0314
-0.1013 0.4006 -0.0435
0.0274 0.0708 -0.0085
0.0571 -0.6887 -0.0772
-0.0531 0.7063 -0.1843
-0.0569 -0.1782 -0.1034
-0.0269 -0.4512 -0.0601
0.0467 0.1442 -0.1583
-0.0169 0.7354 -0.1430
0.0195 0.4999 -0.1593
-0.0300 0.0242 0.0733
0.0160 0.5790 -0.1505
0.1052 -0.7022 0.0883
-0.0233 -0.3269 0.0214
-0.0965 0.2859 0.0147
0.0218 -0.5885 0.0227
0.0432 -0.3394 -0.1544
-0.0145 0.5377 -0.1764
-0.0372 0.4498 0.0445
-0.0083 0.3110 0.0145
-0.1158 0.7440 -0.0979
0.1439 -0.7487 0.0111
0.0786 -0.7157 0.0887
0.0071 0.4764 -0.1802
-0.1049 0.6744 -0.0578
-0.0004 0.0330 -0.1588
-0.0884 0.5861 0.0023
0.0663 -0.2700 0.0236
0.0544 -0.4739 -0.1436
-0.0975 0.7390 -0.1428
-0.0739 0.0614 0.0297
0.0680 -0.3097 0.0405
0.0254 0.4494 -0.1681
0.0279 0.1677 -0.1713
-0.0170 0.4059 -0.1730
0.0128 0.5722 -0.1342
0.1097 -0.6634 0.0361
0.0264 -0.7011 0.0350
0.0049 0.6112 -0.1292
0.0935 -0.2660 -0.0862
-0.0086 0.1239 0.0598
-0.1060 0.7603 -0.0886
-0.0243 0.6863 -0.1841
0.0299 0.4225 -0.1570
-0.0338 0.5004 0.0257
-0.0750 -0.1041 -0.0838
-0.0389 0.0990 0.0761
0.1056 -0.5822 0.0363
-0.0942 0.5402 -0.0548
0.1226 -0.6260 -0.0147
0.0071 0.0617 0.0535
-0.0571 0.3186 0.0673
0.1268 -0.6872 0.0691
0.0116 0.5819 -0.1600
0.0664 -0.6940 -0.0780
0.0600 -0.7020 -0.0637
0.0436 -0.6915 0.0743
0.0594 -0.6571 0.1008
0.0433 -0.3680 0.0731
-0.0234 0.4169 -0.0001
-0.0136 0.1899 0.0497
0.0347 0.3672 -0.1268
-0.0773 0.4174 -0.1434
-0.0362 -0.3703 -0.0810
0.0802 -0.3214 -0.1360
0.0618 0.0703 -0.1138
-0.0355 -0.3573 -0.0169
0.0226 0.4139 -0.1751
0.0287 -0.6358 0.0506
0.0719 -0.4589 0.0689
0.1023 -0.3643 -0.0648
-0.0582 0.6699 -0.1814
0.0372 -0.6721 -0.0693
0.0175 0.4724 -0.1758
0.0388 -0.3074 -0.1517
-0.0795 0.0340 -0.0859
0.1143 -0.6902 0.0810
-0.0297 -0.4231 -0.0878
-0.0308 0.5547 0.0233
-0.0019 -0.1977 0.0782
0.0169 0.5392 -0.1555
-0.0425 0.3986 0.0645
0.0180 -0.1529 0.0796
0.0843 -0.5165 0.0657
-0.0186 0.6015 0.0026
-0.0192 -0.0478 0.0812
-0.0310 0.2608 0.0545
-0.0057 0.1048 -0.1593
0.0767 -0.4370 0.0651
0.0742 -0.1193 -0.1299
0.1279 -0.7657 0.0223
-0.0947 0.3110 0.0427
0.0195 0.3885 -0.0804
-0.0417 -0.2339 0.0187
0.1039 -0.6533 -0.0974
-0.1092 0.6376 -0.0974
0.0615 -0.5952 0.0614
0.0707 -0.6698 -0.0962
0.0795 -0.4038 0.0466
0.1377 -0.7673 0.0003
-0.0839 0.6697 -0.0427
0.0611 -0.1253 -0.0337
0.0413 -0.6655 -0.0840
-0.0769 0.1354 0.0631
0.1190 -0.7546 0.0523
-0.0211 -0.0503 -0.1414
-0.0405 0.4243 0.0506
-0.0677 0.2347 -0.1331
0.0043 0.2968 -0.1748
0.0061 0.6199 -0.1461
0.1133 -0.4668 -0.0767
0.0088 0.1086 -0.1654
0.0773 -0.7132 0.0907
0.0907 -0.2992 -0.0383
0.0330 0.1097 -0.0602
-0.0914 0.3166 -0.0958
0.0057 -0.5212 0.0162
0.0567 -0.5569 0.0707
-0.0844 0.7270 -0.1601
-0.0971 0.2118 -0.0523
-0.0455 0.0087 0.0654
0.0514 -0.7097 -0.0402
0.1285 -0.7568 0.0324
0.0356 0.3404 -0.1691
-0.0020 -0.4696 0.0276
0.0585 -0.2843 -0.1528
0.0759 -0.3328 0.0056
-0.0260 0.7185 -0.0966
-0.0995 0.3937 0.0293
0.0475 -0.0753 -0.0131
-0.0424 0.5406 -0.1667
0.0916 -0.4659 0.0411
0.0856 -0.2654 -0.1275
-0.0114 0.6562 -0.1141
0.0461 -0.5733 0.0569
0.0034 0.4454 -0.0602
-0.0414 -0.2935 -0.0064
0.0106 -0.1905 -0.1534
-0.0745 -0.0501 -0.0802
0.0989 -0.6750 -0.0998
0.0350 -0.7095 -0.0141
-0.0102 -0.5184 -0.0608
0.0005 -0.5906 -0.0800
0.0631 -0.1467 -0.1510
-0.0157 0.3271 -0.1753
-0.0722 0.1330 0.0664
-0.0949 0.7382 -0.0977
-0.0270 0.6547 -0.1683
-0.0660 0.7356 -0.1625
-0.0591 -0.0197 0.0363
0.0604 -0.1375 -0.1561
0.1009 -0.7059 -0.0783
-0.0993 0.5357 -0.1089
-0.0592 0.1649 -0.1354
0.0059 -0.6482 0.0096
0.1168 -0.5522 -0.0588
0.0774 -0.3736 -0.1407
-0.0967 0.5088 -0.0180
0.0895 -0.4386 0.0188
-0.0935 0.6521 -0.1112
-0.0162 0.2509 -0.1648
-0.0838 0.6426 -0.0077
0.0309 -0.4273 -0.1395
-0.0922 0.4733 0.0365
0.1225 -0.7588 0.0431
-0.0831 0.1778 0.0492
0.1064 -0.5990 -0.0990
0.0531 0.0397 -0.0818
-0.0837 0.7596 -0.0952
0.0736 -0.1713 -0.1368
-0.0919 0.5446 -0.0083
-0.0911 0.4489 0.0489
0.1051 -0.3929 -0.0979
-0.0991 0.4093 0.0107
-0.0516 0.6638 -0.1827
0.1087 -0.6158 0.0304
-0.0197 0.1030 0.0727
0.0600 -0.0604 -0.0675
0.1108 -0.5263 -0.0860
-0.0956 0.5135 -0.0850
-0.0023 -0.1984 -0.1441
0.0498 -0.1205 0.0180
-0.0845 0.6006 -0.1312
-0.0905 0.6005 -0.0265
-0.0718 -0.0248 -0.1013
0.0420 -0.5648 -0.1210
-0.0118 0.6450 -0.1679
-0.1040 0.5920 -0.0602
-0.0953 0.3411 -0.1134
-0.0402 0.6324 -0.1608
-0.0975 0.4336 -0.0748
0.1242 -0.6583 -0.0350
0.0919 -0.5771 -0.1145
-0.0170 0.6455 -0.0170
-0.1055 0.6177 -0.1126
-0.1031 0.5770 -0.0924
-0.0210 -0.2181 0.0551
0.0610 0.0374 -0.1394
0.0523 -0.2007 -0.1583
0.0273 -0.0031 0.0416
-0.0253 -0.1371 -0.1329
-0.0200 0.6253 -0.0043
0.0237 -0.3613 -0.1425
0.0984 -0.5525 0.0457
0.0698 0.0017 -0.1228
0.0434 -0.7177 0.0631
-0.0187 0.6322 -0.0081
0.0042 0.3606 -0.0332
-0.0798 0.2034 0.0642
-0.0173 0.7040 -0.1143
0.0885 -0.3946 -0.0145
0.0255 0.2473 -0.1720
-0.0801 0.7325 -0.1616
0.0462 -0.1178 -0.1603
0.0594 0.0569 -0.1047
-0.0021 0.6651 -0.1411
0.0601 0.0938 -0.1313
0.0443 -0.0456 -0.1629
-0.0074 -0.2582 0.0661
-0.0898 0.2099 0.0314
-0.0599 -0.0748 0.0150
0.0461 -0.6233 -0.1088
0.0069 -0.5462 -0.0998
0.0106 -0.6911 -0.0102
0.0724 -0.1164 -0.0882
0.0828 -0.5695 -0.1235
0.0406 -0.6875 -0.0489
-0.0571 -0.1325 -0.0049
0.0342 0.1953 -0.0817
0.0955 -0.5404 -0.1132
-0.0459 0.5863 0.0304
0.0811 -0.7037 -0.0721
-0.0997 0.3485 -0.0584
-0.1235 0.6804 -0.0882
0.0822 -0.5027 -0.1310
0.0190 -0.2704 -0.1507
-0.0690 0.3092 0.0717
-0.0974 0.2632 -0.0351
-0.0808 0.3095 0.0643
-0.0868 0.3746 0.0599
-0.0104 0.1785 -0.1630
0.1097 -0.5363 -0.0065
0.0019 -0.5948 -0.0149
0.0742 -0.2940 -0.1450
-0.0231 0.2740 0.0412
-0.0757 0.6076 -0.1371
0.0507 -0.6865 0.0883
-0.0765 0.4669 -0.1441
0.0828 -0.6967 -0.0821
-0.0638 0.0292 -0.1219
0.0726 -0.6692 -0.0980
-0.1065 0.4098 -0.1010
-0.0272 0.5444 -0.1724
0.0757 -0.2360 -0.0104
-0.0631 -0.2197 -0.0576
-0.0895 0.2360 -0.0843
0.0326 -0.2939 0.0714
-0.0424 0.6660 -0.1849
0.0523 -0.6942 -0.0646
0.0227 -0.5880 -0.1028
-0.1185 0.7426 -0.0887
0.0044 -0.3951 0.0592
-0.0213 0.6203 -0.1726
-0.0144 0.7292 -0.1519
0.0989 -0.3629 -0.1189
0.0811 -0.2061 -0.1278
-0.0690 -0.1414 -0.0734
-0.0238 0.7446 -0.1377
0.1106 -0.6960 0.0893
-0.0880 0.0989 0.0000
0.0630 -0.6733 -0.0949
0.0698 -0.2286 -0.1464
-0.0970 0.4976 -0.0648
0.0203 -0.5448 0.0374
-0.0748 -0.0919 -0.0472
-0.0488 0.0599 0.0717
-0.0395 -0.0596 0.0570
-0.0035 0.6767 -0.1640
-0.0247 0.7425 -0.1305
0.0920 -0.6452 0.0590
-0.0019 0.5751 -0.1724
0.0100 0.5593 -0.1655
-0.0953 0.3328 0.0537
-0.0846 0.0942 -0.0751
-0.0121 -0.3148 0.0516
0.0353 -0.7279 0.0073
0.1413 -0.7323 0.0432
-0.0196 0.5896 -0.1721
0.0356 -0.0565 0.0300
0.0948 -0.4896 0.0121
-0.0777 0.1313 -0.1025
