-0.131881 0.995784 0.172171
-0.0503631 0.965331 0.171234
0.0513001 0.998595 0.192317
-0.0035137 0.944718 0.180604
0.0330288 0.926915 0.189037
0.137034 0.954556 0.227922
0.0864371 0.8974 0.210588
0.190911 0.998126 -0.0222535
0.331928 1 0.193254
0.23495 0.955493 0.0133521
0.317873 0.973764 0.0855001
0.329585 0.935816 0.152026
0.328648 0.953619 0.1197
0.284141 0.913329 0.0602015
0.311314 0.873507 0.116889
0.123917 0.876318 0.226517
0.305224 0.978449 0.249473
0.223237 0.910518 0.264465
0.167018 0.851956 0.24432
0.232139 0.814008 0.273835
0.302881 0.93769 0.254626
0.301476 0.882877 0.26587
0.301007 0.831342 0.276646
0.302413 0.779339 0.294448
0.330054 0.797611 0.243851
-0.484657 0.969548 0.0869056
-0.466386 0.941907 -0.0358398
-0.507145 0.913797 0.0555165
-0.486531 0.850082 0.00866714
-0.46498 0.861326 -0.0255329
-0.423753 0.987819 -0.121574
-0.382057 0.95034 -0.237292
-0.420942 0.918951 -0.13844
-0.440618 0.882408 -0.0780042
-0.37175 0.992973 0.149215
-0.434528 0.935816 0.139377
-0.375029 0.891309 0.180604
-0.485125 0.879597 0.113141
-0.429375 0.834153 0.162333
-0.502928 0.814945 0.0826892
-0.462638 0.773249 0.133286
-0.370813 0.796205 0.196065
-0.394238 0.733427 0.179667
-0.286484 0.947529 0.187163
-0.205903 0.978449 0.180604
-0.286952 0.845397 0.211525
-0.206372 0.917077 0.194659
-0.207777 0.872101 0.203092
-0.210119 0.822441 0.210119
-0.294448 0.759194 0.217147
-0.30944 0.67955 0.201687
-0.223237 0.742328 0.214804
-0.466386 0.821504 -0.0175685
-0.398922 0.857578 -0.219489
-0.424221 0.815413 -0.115952
-0.441087 0.780745 -0.053174
-0.422347 0.743265 -0.0850316
-0.404544 0.749824 -0.179199
-0.395175 0.769033 -0.219489
-0.394706 0.815413 -0.230733
-0.410166 0.713282 -0.108925
-0.393769 0.718904 -0.203092
-0.39049 0.642071 -0.168892
-0.487936 0.748887 0.0339658
-0.467323 0.763879 -0.00585617
-0.473881 0.710471 0.095807
-0.469197 0.711876 0.00304521
-0.470134 0.645819 0.0517686
-0.469197 0.665027 0.015226
-0.417662 0.665964 0.138908
-0.446709 0.621457 0.0812837
-0.467323 0.618178 0.0320918
-0.450925 0.680487 -0.0241274
-0.422816 0.698758 -0.0742563
-0.330522 0.620052 0.173108
-0.423753 0.603654 0.100023
-0.347857 0.562895 0.137503
-0.422816 0.615835 -0.0728508
-0.462169 0.58023 0.00538768
-0.442961 0.50246 -0.058796
-0.392364 0.539002 -0.144062
-0.430312 0.539939 0.059733
-0.369407 0.498712 0.097681
-0.442961 0.477161 0.0222535
-0.390958 0.43687 0.0639494
-0.423753 0.447646 -0.0962755
-0.394706 0.462169 -0.139845
-0.393301 0.383462 -0.143593
-0.451862 0.413446 -0.0166315
-0.445303 0.434996 -0.0602015
-0.412509 0.373155 0.0330288
-0.44624 0.35629 -0.056922
-0.432186 0.310377 -0.000702741
-0.408292 0.278988 -0.122043
-0.437339 0.246662 -0.0409932
-0.413914 0.174045 -0.101429
-0.286952 0.974233 -0.352542
-0.330054 0.970953 -0.307098
-0.121106 0.890841 0.182947
-0.13844 0.807918 0.192317
-0.056922 0.893183 0.174982
-0.053174 0.780276 0.176856
-0.143125 0.754978 0.195128
0.0283439 0.836964 0.187632
-0.342235 0.876786 -0.302881
-0.379714 0.784024 -0.256969
-0.346451 0.798079 -0.302881
-0.278988 0.893652 -0.358164
-0.279457 0.812134 -0.363317
-0.350199 0.739517 -0.296322
-0.328648 0.714219 -0.320684
-0.295385 0.721246 -0.35301
-0.298196 0.686109 -0.350199
-0.379714 0.68283 -0.23167
-0.351605 0.705786 -0.291169
-0.354884 0.618646 -0.275709
-0.376435 0.581167 -0.208245
-0.301007 0.628953 -0.342703
-0.218084 0.908644 -0.408292
-0.226985 0.798548 -0.401265
-0.159054 0.806981 -0.433591
-0.152495 0.899274 -0.441555
-0.233076 0.724526 -0.397517
-0.238698 0.644882 -0.390021
-0.161865 0.774186 -0.431249
-0.166081 0.717967 -0.427032
-0.171703 0.636917 -0.420005
0.103771 0.979386 -0.109862
0.0840946 0.917545 -0.144062
0.0733193 0.955493 -0.207309
0.0573905 0.892715 -0.243383
0.0648864 0.993441 -0.271492
0.0447412 0.9316 -0.305692
0.0686343 0.854767 -0.180136
0.0386507 0.830405 -0.27852
0.020848 0.869759 -0.338487
0.053174 0.792457 -0.217147
0.135629 0.939096 -0.0555165
0.188569 0.896931 -0.00632467
0.105645 0.878192 -0.0859686
0.144062 0.836964 -0.0344343
0.189506 0.800422 0.0039822
0.0850316 0.81635 -0.1197
0.114547 0.775591 -0.0644179
0.0691028 0.753104 -0.155774
0.092996 0.71375 -0.0981495
0.169361 0.73577 -0.00913563
0.128133 0.672991 -0.0456781
0.167487 0.637386 -0.00445069
0.240103 0.85383 0.0358398
0.283673 0.812134 0.0855001
0.250878 0.75123 0.0564535
0.213399 0.691263 0.0292809
-0.092996 0.793394 -0.438276
-0.0742563 0.868822 -0.438744
-0.00585617 0.909581 -0.394706
-0.0428672 0.849145 -0.422347
-0.00210822 0.807918 -0.371281
-0.0278754 0.746545 -0.404076
0.0213165 0.768564 -0.313657
0.0377138 0.729679 -0.253221
0.0035137 0.705786 -0.348794
0.0236589 0.666432 -0.290232
-0.0808152 0.685172 -0.429843
-0.096744 0.60506 -0.423753
-0.019911 0.643945 -0.382525
0.0100726 0.604123 -0.326774
-0.057859 0.583978 -0.409229
-0.0100726 0.541813 -0.361443
0.055048 0.690794 -0.192785
0.0761302 0.650972 -0.133755
0.0433357 0.627547 -0.230733
0.0639494 0.588194 -0.171703
0.103303 0.61115 -0.0780042
0.155774 0.600375 -0.0110096
0.145467 0.564301 -0.0166315
0.0855001 0.549309 -0.112673
0.11033 0.509019 -0.0555165
0.0334973 0.564301 -0.26915
0.055048 0.525416 -0.210588
0.0227219 0.504802 -0.306629
0.0480206 0.47435 -0.241977
0.0728508 0.486062 -0.150621
0.0915905 0.446709 -0.0906535
0.0653549 0.421879 -0.182947
0.0784727 0.383931 -0.128133
-0.353947 0.514172 -0.254158
-0.304755 0.551651 -0.331459
-0.301944 0.450457 -0.321152
-0.254626 0.542282 -0.372218
-0.251347 0.452331 -0.369876
-0.179199 0.528227 -0.410635
-0.186695 0.450925 -0.407824
-0.254626 0.40595 -0.367065
-0.194659 0.37175 -0.406418
-0.374561 0.479503 -0.184352
-0.352542 0.414383 -0.23167
-0.36238 0.309909 -0.211056
-0.317405 0.339424 -0.30007
-0.347857 0.246193 -0.256032
-0.323026 0.263059 -0.301476
-0.370344 0.202155 -0.193722
-0.258843 0.364254 -0.364722
-0.272429 0.270555 -0.361443
-0.203561 0.279457 -0.403607
-0.330991 0.182947 -0.299602
-0.384399 0.112204 -0.148278
-0.368939 0.126259 -0.183884
-0.369407 0.0826892 -0.173108
-0.355821 0.146404 -0.227922
-0.332396 0.0803467 -0.276177
-0.352073 0.0442727 -0.204498
-0.330054 -0.0222535 -0.249473
-0.276177 0.194191 -0.364722
-0.282268 0.115015 -0.357695
-0.207309 0.237761 -0.40267
-0.211993 0.193254 -0.401265
-0.214336 0.103303 -0.397517
-0.27524 0.0100726 -0.342703
-0.282736 -0.091122 -0.316936
-0.223237 -0.000234247 -0.379714
-0.22558 -0.0873741 -0.361911
-0.119232 0.529632 -0.419068
-0.107988 0.413446 -0.417662
-0.0405247 0.480909 -0.391427
0.00117123 0.443429 -0.348794
-0.0194425 0.377372 -0.373155
0.0733193 0.355821 -0.144999
-0.121574 0.34692 -0.417662
-0.129539 0.260248 -0.414851
-0.0630124 0.317405 -0.399859
-0.0288124 0.291637 -0.374092
-0.0409932 0.214804 -0.380651
0.0330288 0.398454 -0.286952
0.0147576 0.336144 -0.322089
0.0513001 0.359569 -0.226985
0.0676974 0.321152 -0.166081
0.0363083 0.296791 -0.263528
0.055048 0.257906 -0.203561
-0.0100726 0.274303 -0.354416
0.0203795 0.234481 -0.299602
0.0438042 0.194659 -0.241977
0.00210822 0.171703 -0.334739
0.0325603 0.131881 -0.279925
-0.13844 0.174514 -0.412509
-0.145467 0.103303 -0.411572
-0.092996 0.154837 -0.405013
-0.0513001 0.130944 -0.386273
-0.0616069 0.0480206 -0.397517
-0.140782 -0.00726165 -0.406418
-0.158117 -0.0934645 -0.392364
-0.0761302 -0.0255329 -0.40595
-0.0836261 -0.11361 -0.40267
-0.0222535 0.11033 -0.367065
0.0213165 0.0686343 -0.317405
0.00585617 0.00585617 -0.353947
-0.020848 -0.0555165 -0.385805
-0.227454 -0.120637 -0.357695
-0.160459 -0.130944 -0.38721
-0.230265 0.656594 0.204498
-0.246193 0.584915 0.185289
-0.261185 0.508082 0.162802
-0.285547 0.447177 0.140314
-0.324432 0.390021 0.107988
-0.293511 0.369876 0.126728
-0.353947 0.329117 0.0775357
-0.301007 0.291637 0.11361
-0.382057 0.267744 0.0461466
-0.323495 0.226048 0.092996
-0.406418 0.205903 0.0138206
-0.357695 0.163739 0.0611384
-0.419536 0.143125 -0.0231904
-0.384868 0.102366 0.0297494
-0.336613 0.145467 0.0817522
-0.345983 0.0648864 0.0747248
-0.411572 0.0747248 -0.0751933
-0.400328 0.0400562 -0.00632467
-0.401265 -0.015226 -0.0423987
-0.366128 -0.00445069 0.0527056
-0.35629 0.0311548 0.0644179
-0.385336 -0.0573905 0.0156945
-0.15718 0.638791 0.192317
-0.0761302 0.708128 0.175451
-0.0836261 0.620052 0.176388
0.0128836 0.762005 0.182478
0.112204 0.79152 0.220895
0.0653549 0.733896 0.201687
0.101897 0.714219 0.216678
0.00773015 0.67346 0.178262
-0.00632467 0.595221 0.179199
0.0901851 0.627079 0.210588
0.0381822 0.571797 0.194659
0.0831576 0.545561 0.214336
-0.208245 0.57086 0.187632
-0.161865 0.599438 0.190443
-0.167955 0.556805 0.1881
-0.17873 0.476224 0.18201
-0.092059 0.534317 0.182478
-0.147341 0.462638 0.186695
-0.09487 0.490279 0.187163
-0.0981495 0.443429 0.191848
-0.192317 0.416257 0.177793
-0.255563 0.345514 0.146873
-0.188569 0.306629 0.176856
-0.106114 0.357227 0.197939
-0.114547 0.246193 0.202155
-0.0185055 0.521199 0.187163
-0.0175685 0.41204 0.203092
0.0644179 0.461232 0.220426
0.0803467 0.493558 0.220895
0.0709768 0.365659 0.236824
-0.0128836 0.307566 0.217147
-0.0283439 0.227922 0.221832
0.0733193 0.261654 0.249004
0.015226 0.205435 0.236355
0.059733 0.182478 0.251347
0.199813 0.761537 0.264933
0.14453 0.68892 0.235887
0.20684 0.649098 0.26915
0.275709 0.576013 0.289763
0.183884 0.597564 0.260248
0.115952 0.525884 0.230265
0.180136 0.474818 0.261654
0.331928 0.668775 0.157648
0.295854 0.70766 0.107988
0.262122 0.64863 0.0765987
0.286015 0.627547 0.101429
0.222769 0.588662 0.0503631
0.278988 0.544624 0.110799
0.306161 0.606934 0.125791
0.308972 0.473413 0.207309
0.301944 0.506208 0.152495
0.258843 0.454673 0.273366
0.14453 0.467791 -0.0039822
0.127196 0.423753 0.25041
0.117826 0.407355 -0.0339658
0.133286 0.389084 -0.0110096
0.0995549 0.345046 -0.0691028
0.11361 0.324432 -0.0409932
0.182478 0.528695 0.0245959
0.226517 0.486999 0.0737878
0.187632 0.427032 0.0470836
0.286015 0.479035 0.139845
0.266339 0.445772 0.124385
0.297259 0.413446 0.183884
0.229328 0.385336 0.0972125
0.274303 0.341298 0.150152
0.154369 0.366128 0.0185055
0.12907 0.304287 -0.0138206
0.195128 0.3249 0.0686343
0.241977 0.282268 0.116889
0.166081 0.263528 0.0381822
0.211525 0.221363 0.0869056
0.170297 0.398454 0.26915
0.136566 0.321152 0.271024
0.168892 0.347857 0.277583
0.167018 0.30335 0.285547
0.214336 0.377372 0.281799
0.255095 0.378777 0.28461
0.215741 0.275709 0.306161
0.2565 0.299602 0.307566
0.257906 0.250878 0.324432
0.159522 0.218084 0.295854
0.097681 0.159522 0.269618
0.155774 0.103771 0.298665
0.219958 0.174045 0.329117
0.257906 0.179199 0.342703
0.245725 0.0686343 0.341766
0.33427 0.263059 0.2565
0.308503 0.302881 0.199344
0.261185 0.266339 0.134692
0.255095 0.186226 0.124854
0.292106 0.240103 0.16327
0.338018 0.198407 0.211993
0.316936 0.136097 0.178262
0.400796 0.111267 0.317405
0.355821 0.104708 0.211525
0.405481 0.00960412 0.354416
-0.213867 0.242914 0.164676
-0.266339 0.181541 0.133286
-0.211056 0.14453 0.16655
-0.133755 0.189037 0.198407
-0.306161 0.121574 0.107051
-0.235418 0.0784727 0.156711
-0.291637 0.018037 0.125791
-0.124854 0.0892481 0.204029
-0.240103 -0.0339658 0.160459
-0.173108 0.0330288 0.187163
-0.140314 0.0138206 0.201687
-0.148747 -0.0709768 0.203561
-0.0391192 0.148747 0.22558
-0.0405247 0.0363083 0.229796
0.0494261 0.101429 0.252284
0.055985 0.00491918 0.257906
-0.0897166 -0.0128836 0.219958
-0.0513001 -0.0339658 0.233544
-0.0606699 -0.117358 0.242914
-0.00163973 -0.059733 0.25041
0.0386507 -0.0306863 0.256032
0.0358398 -0.0780042 0.261185
0.0269384 -0.163739 0.273366
-0.386742 0.0110096 -0.122511
-0.370344 0.0260014 -0.160459
-0.329117 -0.0419302 0.0986179
-0.35629 -0.103303 0.0676974
-0.37175 -0.0236589 -0.150621
-0.389553 -0.0901851 -0.096744
-0.373155 -0.0700398 -0.143125
-0.375498 -0.155306 -0.13516
-0.357695 -0.0564535 -0.177325
-0.335207 -0.123448 -0.229796
-0.393301 -0.126259 -0.0274069
-0.375029 -0.166081 0.0325603
-0.391895 -0.19138 -0.0705083
-0.385805 -0.228859 -0.00585617
-0.274303 -0.0845631 0.143593
-0.250878 -0.10096 0.158585
-0.311314 -0.145467 0.116421
-0.261185 -0.195596 0.154369
-0.204966 -0.12907 0.182478
-0.151558 -0.182478 0.214336
-0.188569 -0.232607 0.200281
-0.161396 -0.251347 0.218552
-0.340361 -0.206372 0.0859686
-0.291637 -0.248536 0.133286
-0.360974 -0.268213 0.0517686
-0.322089 -0.30944 0.103303
-0.271961 -0.264465 0.149684
-0.284141 -0.363317 0.142188
-0.234481 -0.291637 0.176856
-0.169829 -0.335207 0.223237
-0.218552 -0.395175 0.195128
-0.0611384 -0.218552 0.260717
-0.125322 -0.276646 0.241509
0.092996 0.314594 -0.0869056
0.0873741 0.281331 -0.107051
0.112673 0.241977 -0.0494261
0.0761302 0.218552 -0.144999
0.100023 0.179199 -0.0873741
0.144062 0.201687 0.00491918
0.183415 0.159991 0.055985
0.126728 0.139377 -0.0302178
0.159054 0.0986179 0.0236589
0.0653549 0.155306 -0.182947
0.0869056 0.115952 -0.124385
0.055985 0.0925275 -0.221832
0.0756617 0.0527056 -0.162333
0.110799 0.0765987 -0.0667604
0.137034 0.0367768 -0.0100726
0.095807 0.0138206 -0.103303
0.117826 -0.0255329 -0.0452097
0.131881 0.0494261 0.289763
0.13516 -0.057859 0.290232
0.198876 0.0105411 0.320216
0.0883111 -0.106582 0.280394
0.232139 0.118295 0.10424
0.199344 0.0573905 0.0742563
0.219489 0.0395877 0.093933
0.28461 0.0751933 0.148747
0.249473 0.0147576 0.121106
0.336144 0.0245959 0.184352
0.317405 -0.0334973 0.167487
0.170766 -0.0039822 0.0433357
0.211525 -0.0419302 0.0869056
0.147341 -0.0662919 0.0100726
0.192317 -0.103303 0.0672289
0.272429 -0.0892481 0.136097
0.309909 -0.113141 0.156711
0.237761 -0.149684 0.107988
0.299133 -0.196065 0.145467
0.0494261 0.0288124 -0.261654
0.0681658 -0.0105411 -0.202155
0.0414617 -0.0349028 -0.301007
0.0606699 -0.0742563 -0.241509
0.0836261 -0.0494261 -0.140782
0.101897 -0.0883111 -0.0808152
0.0737878 -0.112204 -0.179667
0.0887796 -0.151089 -0.118295
0.0245959 -0.0981495 -0.336144
0.0545795 -0.11033 -0.263528
-0.0105411 -0.158117 -0.365191
0.0241274 -0.199344 -0.31272
0.0475521 -0.137034 -0.27852
0.0616069 -0.175451 -0.217147
0.0545795 -0.155306 -0.25041
0.0761302 -0.213867 -0.155774
0.053174 -0.21293 -0.239166
0.0625439 -0.276646 -0.20075
0.0466151 -0.238229 -0.253689
0.127665 -0.128133 -0.0241274
0.168424 -0.174514 0.0363083
0.111267 -0.190443 -0.059733
0.148278 -0.238229 0.0035137
0.207777 -0.211056 0.0775357
0.273835 -0.260248 0.128133
0.182478 -0.272429 0.0452097
0.234013 -0.315062 0.0915905
0.0962755 -0.253221 -0.0962755
0.127665 -0.297728 -0.0349028
0.0850316 -0.321621 -0.134692
0.117358 -0.323495 -0.0583275
0.11033 -0.35629 -0.0775357
0.161396 -0.33427 0.0114781
0.209651 -0.376903 0.058796
0.144062 -0.397048 -0.0241274
0.189506 -0.438744 0.0250644
-0.167955 -0.431717 0.230733
-0.0625439 -0.325837 0.275709
0.0269384 -0.265402 0.287889
0.0349028 -0.370813 0.301476
-0.11033 -0.379246 0.260248
-0.0719138 -0.403139 0.280394
-0.0817522 -0.482314 0.282268
-0.0334973 -0.42469 0.295385
0.016163 -0.44952 0.310377
0.00538768 -0.529632 0.31881
0.226985 -0.0962755 0.328648
0.123917 -0.124385 0.292106
0.115484 -0.210119 0.297259
0.173577 -0.152495 0.31272
0.213399 -0.173577 0.327243
0.203561 -0.258374 0.323495
0.31272 -0.146404 0.357695
0.404076 -0.0794097 0.373624
0.395643 -0.176388 0.379714
0.262591 -0.198876 0.342703
0.342703 -0.315062 0.345514
0.286484 -0.29398 0.340829
0.123448 -0.307566 0.306161
0.106582 -0.337081 0.305224
0.103303 -0.391427 0.311783
0.193722 -0.339892 0.322089
0.181073 -0.419536 0.3249
0.0836261 -0.479035 0.323495
0.0887796 -0.570391 0.340829
0.184821 -0.523073 0.338018
0.267744 -0.338487 0.114078
0.261185 -0.368939 0.333333
0.280394 -0.337081 0.33755
0.263528 -0.47435 0.331459
0.351605 -0.397985 0.330991
0.334739 -0.46826 0.325837
0.259311 -0.412977 0.0953385
0.236824 -0.476692 0.0644179
0.18201 -0.624736 0.363317
0.25978 -0.548372 0.341298
0.258843 -0.60178 0.353479
0.260717 -0.652378 0.370813
0.330522 -0.561021 0.321152
0.32818 -0.605528 0.327243
0.328648 -0.659874 0.343172
-0.343172 -0.23167 -0.211993
-0.381588 -0.255563 -0.115015
-0.389553 -0.292574 -0.0466151
-0.383931 -0.358632 -0.0934645
-0.3591 -0.323495 -0.169829
-0.344577 -0.308503 -0.204966
-0.345046 -0.353947 -0.195128
-0.361911 -0.424221 -0.143593
-0.345514 -0.408761 -0.18201
-0.345046 -0.453736 -0.168892
-0.296322 -0.198407 -0.297259
-0.325369 -0.290232 -0.251347
-0.298196 -0.274772 -0.294917
-0.230733 -0.179667 -0.351136
-0.237761 -0.258374 -0.347388
-0.301007 -0.331459 -0.287889
-0.262122 -0.363785 -0.327711
-0.325837 -0.390958 -0.226517
-0.301944 -0.370813 -0.278988
-0.300539 -0.429375 -0.260717
-0.316468 -0.493558 -0.205435
-0.298196 -0.479035 -0.243383
-0.276646 -0.460764 -0.289763
-0.249473 -0.449988 -0.326774
-0.375498 -0.330991 0.0147576
-0.346451 -0.371281 0.0705083
-0.384399 -0.394238 -0.0241274
-0.366128 -0.433591 0.0358398
-0.301476 -0.417662 0.127665
-0.334739 -0.473881 0.0901851
-0.30944 -0.498712 0.1197
-0.2565 -0.45561 0.168424
-0.289763 -0.516046 0.139377
-0.383931 -0.459358 -0.0676974
-0.378777 -0.496369 -0.00163973
-0.378309 -0.564301 -0.0316233
-0.359569 -0.525884 -0.1197
-0.344109 -0.513235 -0.152495
-0.355821 -0.536191 0.0564535
-0.322089 -0.573671 0.10424
-0.368002 -0.606934 0.0138206
-0.344577 -0.633169 0.0667604
-0.297259 -0.519325 -0.229796
-0.249941 -0.489342 -0.317873
-0.268213 -0.562895 -0.268213
-0.249941 -0.551183 -0.300539
-0.25041 -0.589599 -0.292574
-0.34364 -0.549309 -0.141251
-0.342703 -0.633169 -0.109862
-0.36238 -0.66409 -0.0264699
-0.348794 -0.702506 0.0358398
-0.335676 -0.731553 -0.0789412
-0.342703 -0.767627 -0.00960412
-0.327711 -0.836964 -0.0386507
-0.297259 -0.602249 -0.197939
-0.297259 -0.70438 -0.173108
-0.270087 -0.66409 -0.242914
-0.251815 -0.650035 -0.280394
-0.254626 -0.702506 -0.273366
-0.279457 -0.764816 -0.214336
-0.2565 -0.742328 -0.268213
-0.258374 -0.829937 -0.261654
-0.299133 -0.806981 -0.150152
-0.296322 -0.904896 -0.122511
-0.282268 -0.865542 -0.1881
-0.16327 -0.185289 -0.38112
-0.171234 -0.266807 -0.37784
-0.0770672 -0.218552 -0.387679
-0.097681 -0.291169 -0.388616
-0.181073 -0.35629 -0.378777
-0.186226 -0.407824 -0.378309
-0.0986179 -0.382057 -0.394706
-0.189037 -0.442961 -0.375966
-0.119232 -0.454205 -0.398454
-0.00491918 -0.25978 -0.342703
-0.0381822 -0.320684 -0.371281
0.0119466 -0.276177 -0.323026
-0.00679316 -0.342703 -0.350199
0.0316233 -0.301007 -0.289763
0.0573905 -0.340829 -0.233076
0.018037 -0.363785 -0.327243
0.0517686 -0.404544 -0.273835
-0.0133521 -0.419068 -0.367533
-0.0386507 -0.486062 -0.388616
0.0428672 -0.467791 -0.31272
0.0255329 -0.530101 -0.347857
0.0784727 -0.380183 -0.174514
0.101897 -0.419536 -0.116889
0.0765987 -0.444366 -0.21621
0.100023 -0.48372 -0.158585
0.132349 -0.459827 -0.0620754
0.173577 -0.501054 -0.0110096
0.127665 -0.52401 -0.102366
0.17264 -0.572734 -0.0414617
0.0761302 -0.50855 -0.258843
0.10424 -0.559147 -0.210119
0.0714453 -0.567112 -0.298196
0.131413 -0.591473 -0.146404
0.162802 -0.596627 -0.0709768
-0.194191 -0.533849 -0.366596
-0.205435 -0.641134 -0.346451
-0.122043 -0.542282 -0.397985
-0.135629 -0.627079 -0.392832
-0.139845 -0.679082 -0.390021
-0.0498946 -0.567112 -0.395175
-0.059733 -0.651441 -0.399859
-0.00445069 -0.591005 -0.378309
-0.241509 -0.731553 -0.296791
-0.205435 -0.717967 -0.344109
-0.210588 -0.793394 -0.336613
-0.142188 -0.715624 -0.38721
-0.148747 -0.805575 -0.37784
0.0508316 -0.630827 -0.340829
0.0283439 -0.695948 -0.367065
-0.0695713 -0.732959 -0.399859
-0.0733193 -0.807918 -0.39049
-0.021785 -0.755446 -0.389084
0.0185055 -0.779808 -0.36847
0.0171 -0.830874 -0.360506
-0.0156945 -0.857109 -0.367065
0.016163 -0.877723 -0.348794
-0.190443 -0.496838 0.218084
-0.235887 -0.558679 0.184352
-0.200281 -0.585851 0.211993
-0.271024 -0.619115 0.156243
-0.211525 -0.66081 0.207309
-0.300539 -0.680487 0.125791
-0.254626 -0.722652 0.174045
-0.211993 -0.757789 0.21293
-0.137503 -0.542282 0.253221
-0.17873 -0.60178 0.227922
-0.0864371 -0.595221 0.287421
-0.108456 -0.652846 0.278051
0.00491918 -0.631764 0.330991
-0.0536425 -0.689857 0.310846
-0.162333 -0.705317 0.246193
-0.104708 -0.749356 0.288358
-0.149684 -0.807449 0.26587
0.00257672 -0.74186 0.343172
-0.108456 -0.860857 0.301476
-0.0395877 -0.792457 0.330054
-0.00726165 -0.813071 0.347857
-0.016163 -0.895526 0.353947
-0.320684 -0.742797 0.0915905
-0.283673 -0.783556 0.143593
-0.330054 -0.806044 0.0527056
-0.304755 -0.845866 0.109862
-0.23167 -0.824315 0.201687
-0.271024 -0.886625 0.16327
-0.239635 -0.938627 0.204966
-0.326306 -0.882408 0.000702741
-0.316936 -0.908644 0.0723823
-0.318342 -0.973296 0.0283439
-0.293511 -0.947997 0.130007
-0.255563 -0.993441 0.189506
-0.192785 -0.867416 0.24104
-0.314594 -0.936285 -0.0391192
-0.140782 -0.910049 0.286952
-0.118295 -0.926915 0.304287
-0.18201 -0.970016 0.261185
-0.0798782 -0.953619 0.329117
0.215741 -0.537128 0.0283439
0.092996 -0.677676 0.36238
0.092059 -0.784493 0.379246
0.180604 -0.724526 0.391427
0.174514 -0.832748 0.404076
0.0344343 -0.836964 0.367065
0.0822207 -0.862263 0.382525
0.0714453 -0.941438 0.384399
0.128602 -0.884282 0.394706
0.167018 -0.902085 0.403139
0.159522 -0.992504 0.403139
0.262591 -0.6922 0.384399
0.330522 -0.696885 0.357695
0.279925 -0.773718 0.41204
0.260717 -0.857109 0.423753
0.340361 -0.777934 0.401265
0.303818 -0.876318 0.432654
0.34364 -0.858983 0.429843
0.247599 -0.932537 0.422816
-0.255563 -0.935348 -0.227454
-0.267744 -0.968611 -0.169361
-0.251347 -0.992973 -0.190911
-0.211993 -0.897868 -0.313657
-0.149215 -0.907238 -0.35301
-0.207777 -0.973296 -0.28461
-0.0742563 -0.891778 -0.369876
-0.0733193 -0.930194 -0.358632
0.016163 -0.933005 -0.335676
0.342703 -0.891778 0.436402
0.338018 -0.981729 0.441555
0.410166 0.0517686 0.274303
0.36238 -0.103771 0.187632
0.385336 -0.240572 0.183884
0.438744 -0.340829 0.332865
0.48044 -0.283673 0.204029
0.507145 -0.348794 0.306161
0.336144 -0.298665 0.159522
0.375966 -0.320684 0.175919
0.298665 -0.3591 0.132349
0.36238 -0.412977 0.162802
0.467791 -0.307566 0.199813
0.427032 -0.345514 0.189037
0.423753 -0.412977 0.314125
0.415788 -0.452331 0.306161
0.462169 -0.363785 0.20075
0.490279 -0.418599 0.282736
0.457484 -0.437807 0.208714
0.447177 -0.449051 0.205435
0.437807 -0.485125 0.276646
0.331928 -0.464043 0.143125
0.296791 -0.524479 0.115484
0.352073 -0.479972 0.159522
0.347388 -0.568517 0.173108
0.385336 -0.506676 0.188569
0.395643 -0.549777 0.261185
0.367533 -0.610682 0.228859
0.409229 -0.487468 0.298665
0.362848 -0.642539 0.2907
0.107519 -0.613493 -0.24713
0.161396 -0.628953 -0.0915905
0.136566 -0.653315 -0.191848
0.162802 -0.693605 -0.13516
0.102366 -0.677208 -0.287421
0.0840946 -0.739517 -0.323026
0.13844 -0.717498 -0.23495
0.16327 -0.757789 -0.177793
0.125791 -0.780745 -0.272898
0.152495 -0.821035 -0.21621
0.0466151 -0.799485 -0.350199
0.0953385 -0.841649 -0.302881
0.128133 -0.882408 -0.249004
0.0484891 -0.901148 -0.326306
0.0925275 -0.942844 -0.277114
0.271024 -0.58632 0.0831576
0.208714 -0.606934 -0.00117123
0.25041 -0.648161 0.0489576
0.310377 -0.627079 0.134692
0.356758 -0.628484 0.209651
0.344109 -0.671586 0.193722
0.286484 -0.68892 0.101429
0.323026 -0.732959 0.159522
0.196533 -0.669712 -0.0391192
0.231202 -0.710002 0.0142891
0.187163 -0.73249 -0.0775357
0.211056 -0.772312 -0.019911
0.262591 -0.750761 0.0686343
0.301944 -0.797611 0.130007
0.237761 -0.812134 0.0363083
0.272429 -0.853361 0.0897166
0.369407 -0.697353 0.251347
0.390958 -0.753104 0.320216
0.357227 -0.770438 0.207309
0.401265 -0.812602 0.2565
0.377372 -0.783087 0.376903
0.400796 -0.798548 0.358632
0.411572 -0.864605 0.402202
0.440618 -0.85383 0.307566
0.446709 -0.891309 0.372687
0.289763 -0.870227 0.11033
0.337081 -0.832748 0.173108
0.384399 -0.874912 0.220895
0.315062 -0.895057 0.139377
0.360974 -0.936753 0.187632
0.43078 -0.918014 0.271492
0.460295 -0.929726 0.342703
0.409698 -0.983603 0.243383
0.459358 -0.957367 0.3249
0.178262 -0.796205 -0.116889
0.194659 -0.83509 -0.0555165
0.16655 -0.859452 -0.154369
0.180136 -0.897868 -0.092996
0.218084 -0.874444 0.00210822
0.25978 -0.922699 0.0639494
0.203092 -0.937222 -0.0344343
0.238229 -0.985008 0.0185055
0.148747 -0.921762 -0.189506
0.16655 -0.960647 -0.129539
0.190911 -1 -0.0723823
0.295385 -0.956899 0.104708
0.339892 -0.999063 0.1539
0.413446 -0.904427 0.416257
0.412509 -0.963457 0.428906
0.449051 -0.992973 0.39658
0.462169 -0.976575 0.358632
