0.0963 -0.2041 0.0832
-0.1258 -0.2670 -0.0328
0.0620 0.4912 -0.1139
-0.0213 -0.5184 0.1046
-0.0824 0.7018 0.0631
-0.0934 0.1824 0.1344
-0.0098 0.7756 -0.1357
0.1822 -0.6916 -0.0720
-0.0159 -0.4829 0.1281
0.0790 -0.7232 -0.1487
0.0743 -0.3660 -0.2038
-0.1467 0.2620 -0.1404
0.0871 -0.6682 -0.1765
0.1321 -0.7793 0.0609
0.1300 -0.4066 -0.1667
-0.1077 0.7402 -0.1600
-0.1085 0.7638 -0.1340
-0.1295 0.4989 -0.1617
0.1492 -0.4489 -0.0346
0.1282 -0.7975 0.0425
0.0704 -0.3611 0.1370
-0.1077 0.0502 -0.1596
0.1182 -0.5900 0.1362
0.0761 -0.6963 -0.1622
0.0279 -0.0303 -0.2140
0.1059 0.1671 -0.1531
0.0774 0.0135 -0.0126
0.0142 0.0038 0.1471
0.0827 0.0011 -0.2011
0.0350 0.1050 0.0944
0.0492 -0.7186 -0.1488
0.0755 -0.5760 -0.1956
-0.0490 0.0103 -0.1912
0.0103 0.7598 -0.0207
0.0587 -0.4469 0.1520
-0.0599 -0.6666 -0.0749
-0.0456 0.4784 -0.2195
0.1242 -0.7658 0.0807
-0.0461 -0.1573 0.1249
0.0599 -0.7824 -0.0991
0.1506 -0.5106 -0.1365
0.0494 -0.5637 -0.1926
0.1581 -0.4105 -0.0869
-0.0665 0.7617 -0.1729
0.0118 0.3443 -0.2270
-0.1261 -0.2061 -0.0029
0.0379 -0.1822 -0.2114
-0.0882 0.3681 -0.2004
0.1496 -0.7813 -0.0360
-0.1516 0.1162 -0.0800
-0.0172 -0.5479 -0.1628
-0.1505 0.3033 0.0065
0.0749 0.5453 -0.1772
0.1040 0.0105 -0.1109
-0.0357 0.1952 0.1338
0.1439 -0.6843 -0.1366
0.1528 -0.6779 0.1103
0.0391 0.2631 0.0387
-0.0760 0.6691 0.0908
0.0745 -0.7002 0.1340
0.1202 -0.7054 -0.1445
-0.1402 0.6938 -0.0509
0.1743 -0.7374 0.0289
0.0279 0.1881 0.0740
-0.0631 0.7798 0.0012
0.0961 -0.7259 -0.1427
-0.0203 0.8046 -0.0816
0.1794 -0.6303 -0.1036
-0.1461 0.6106 -0.0236
-0.1328 0.1446 0.0515
0.1320 -0.2089 -0.0748
-0.1127 0.4446 -0.1845
-0.1219 0.1184 0.0835
0.1748 -0.6974 0.0672
-0.0583 0.7448 0.0361
-0.1304 0.2575 0.0846
0.0846 0.2932 -0.1952
-0.1388 0.4395 0.0869
-0.1309 -0.0573 0.0029
-0.1184 0.6044 0.0858
0.0173 0.7066 -0.0433
0.0682 -0.2721 0.1302
-0.1085 0.7120 -0.1803
0.0690 -0.7479 0.1069
0.0348 0.5226 -0.2346
0.0814 0.2274 -0.2094
-0.1513 0.3654 0.0302
0.0749 -0.7771 -0.1043
-0.1340 0.6847 -0.0272
0.1674 -0.7190 -0.0771
-0.0459 -0.6093 0.0304
-0.1177 0.0045 0.0487
0.1305 -0.7732 -0.0813
0.0557 0.0881 -0.2147
-0.1288 0.6646 0.0092
0.0095 -0.6836 -0.1537
-0.1043 0.2498 0.1335
0.1040 -0.7657 -0.1104
-0.0752 0.7584 0.0170
-0.1576 0.4603 -0.0136
-0.0709 -0.1173 0.0989
-0.0945 0.0388 0.0988
0.0126 0.2530 -0.2240
-0.1220 0.7559 -0.1122
0.0750 -0.0188 0.0470
0.1343 -0.6728 -0.1494
-0.0986 0.7741 -0.0447
-0.0114 0.7966 -0.0549
0.0006 -0.5391 0.1303
-0.0363 0.3272 0.1359
0.0752 0.5275 -0.1671
0.0415 0.3328 -0.2252
0.0124 0.7293 -0.0167
0.1457 -0.4295 -0.1441
-0.1484 0.1153 -0.0268
-0.0245 0.6988 0.0704
-0.1435 0.4822 0.0556
-0.0623 -0.4620 0.0379
-0.1421 0.2261 0.0307
-0.0918 -0.1002 -0.1633
0.0704 0.3103 -0.2088
-0.0945 0.6817 -0.1994
0.1494 -0.7430 -0.0856
0.0556 0.5514 -0.2235
-0.1634 0.6651 -0.0972
-0.0746 0.2530 0.1372
0.0053 0.4913 -0.2322
-0.0053 0.7845 -0.0584
0.1639 -0.5058 -0.0643
0.0579 0.0171 -0.2155
0.1061 -0.3676 0.0767
0.1775 -0.6573 -0.1080
-0.0017 -0.2458 -0.1966
-0.0973 0.4452 0.1353
0.1301 -0.2177 -0.1441
-0.1016 0.6725 0.0579
0.0242 -0.7917 -0.0448
0.0144 0.7572 -0.0219
0.1798 -0.6212 0.0473
0.0489 0.3045 -0.2235
0.0434 -0.2654 -0.2093
0.0730 -0.6457 0.1541
-0.0296 -0.4001 -0.1695
0.1300 -0.1675 -0.1255
-0.1431 0.3310 0.0640
0.0007 -0.2977 0.1463
-0.0292 0.3666 0.1194
0.0788 -0.1482 0.0919
-0.0502 -0.3778 0.0954
-0.0786 -0.3896 0.0301
-0.0383 -0.0985 0.1373
0.0223 -0.5208 -0.1843
-0.0972 0.7638 -0.0270
0.0991 -0.4554 -0.1904
0.0158 0.6846 0.0237
-0.0679 -0.5807 -0.0260
-0.0546 0.7651 -0.1705
-0.0944 0.2827 -0.1889
-0.0120 0.3865 0.0829
0.1609 -0.6959 -0.1145
-0.0196 -0.6727 0.0471
0.0328 0.6871 -0.1817
0.0690 0.5751 -0.1700
0.0273 0.5584 -0.2366
-0.1493 0.6955 -0.0717
0.0272 0.0111 -0.2126
0.0624 -0.1617 -0.2108
0.1096 -0.7769 -0.0973
-0.1595 0.4702 -0.1191
-0.0436 0.3895 -0.2152
0.0477 -0.4293 -0.2044
-0.1227 0.2259 0.1019
-0.1495 0.6973 -0.0880
0.0202 0.1634 -0.2237
0.0911 0.3284 -0.1574
0.1299 -0.6745 0.1318
0.0120 0.7472 -0.0155
-0.1253 0.4016 0.1156
-0.0659 -0.5214 0.0106
0.0896 -0.0768 -0.1955
0.1055 -0.6910 -0.1599
0.0031 0.0807 0.1388
-0.0608 0.7405 0.0393
-0.1243 -0.2082 -0.1117
-0.0547 -0.3407 -0.1510
0.1361 -0.7994 -0.0408
0.0943 0.2281 -0.1407
-0.0057 -0.4561 -0.1776
-0.0194 -0.1272 0.1460
-0.1301 0.5313 0.0726
0.0172 0.7228 0.0131
0.1557 -0.5596 0.0654
-0.0997 -0.1691 0.0469
-0.0836 0.5455 -0.2014
0.1881 -0.6509 -0.0605
0.0230 -0.6605 0.1101
-0.0988 0.7875 -0.1044
-0.0144 0.7644 -0.1667
-0.0058 0.7665 -0.1531
-0.1326 0.3652 0.0994
-0.0920 0.7421 -0.1743
-0.0740 0.8047 -0.0462
-0.0079 -0.1197 -0.2035
0.0910 0.1372 -0.1911
-0.0143 0.4799 0.1081
0.0929 -0.6300 0.1594
0.0794 0.4637 -0.1634
0.1772 -0.5995 -0.0167
-0.0462 -0.2489 -0.1671
-0.0881 0.7377 0.0279
0.0630 -0.7852 0.0644
0.0538 -0.6560 -0.1791
-0.0512 0.1662 -0.2007
0.0498 0.0384 0.0732
-0.1630 0.2854 -0.0752
0.0348 0.6489 -0.0969
-0.0933 -0.2706 -0.1352
0.0164 0.5294 0.0178
0.0122 0.7209 0.0178
0.0277 -0.1170 -0.2149
-0.0880 -0.3668 -0.1227
0.0727 -0.4515 0.1456
-0.0600 -0.5229 -0.1186
-0.0667 -0.3955 0.0559
0.0246 -0.6969 -0.1533
0.0238 0.7034 0.0311
0.0081 -0.7281 0.0534
-0.0794 -0.0194 -0.1739
-0.0449 0.3130 0.1422
-0.0443 0.3186 -0.2114
-0.1498 -0.0039 -0.0668
-0.0356 -0.7164 -0.0571
-0.0310 0.6221 -0.2319
0.0735 0.4257 -0.1274
-0.0849 0.7640 -0.1622
-0.0366 0.7663 -0.1727
0.0446 0.1361 0.0535
0.1518 -0.6007 0.0975
0.1614 -0.7575 -0.0338
0.0562 0.2102 0.0181
0.0346 -0.7255 -0.1438
0.0410 -0.7945 -0.0685
-0.0698 -0.6343 -0.0531
0.1563 -0.5893 -0.1383
0.1481 -0.7039 0.1056
0.0644 0.3063 -0.0330
0.1322 -0.7326 0.1019
0.0219 0.0356 0.1282
0.0782 -0.4970 -0.1998
0.0681 -0.7522 -0.1320
-0.0627 0.6884 -0.2153
-0.0441 0.2541 0.1346
0.0682 -0.8115 0.0376
0.0814 0.2885 -0.1201
-0.0344 -0.7068 -0.0866
-0.0910 -0.4926 -0.0479
0.0961 0.1993 -0.1832
-0.0182 0.4906 -0.2262
0.0406 -0.7828 0.0548
-0.1151 0.5591 0.1090
-0.1190 -0.3287 -0.0409
-0.0556 0.7212 -0.2066
-0.1448 0.0697 -0.0771
0.0125 0.1598 0.1029
0.0848 -0.3218 0.1160
-0.1049 0.7785 -0.1149
0.1201 -0.0832 -0.1371
-0.0795 0.7831 -0.0157
-0.0584 -0.6097 -0.1011
0.1073 -0.1687 0.0418
-0.1355 -0.1198 -0.0174
0.0344 0.4095 -0.2330
0.0445 -0.7748 -0.1021
0.1621 -0.5560 0.0430
-0.0552 0.7500 -0.1854
0.1451 -0.6446 0.1270
-0.0810 0.8011 -0.0640
0.0475 -0.7230 0.1093
0.1348 -0.7878 0.0450
0.0755 -0.7647 0.0914
0.1225 -0.8116 -0.0402
0.0728 0.5151 -0.1495
-0.1666 0.5821 -0.0733
-0.1638 0.3774 -0.1022
0.1376 -0.2365 -0.1303
-0.1470 0.0515 -0.0512
-0.0511 0.0968 -0.1952
0.0562 -0.6834 0.1377
-0.1424 0.0257 -0.0068
0.0720 -0.7205 0.1255
-0.0567 0.1886 0.1362
0.0336 0.6140 -0.0345
0.1382 -0.4901 -0.1556
-0.0001 -0.6915 -0.1446
0.1600 -0.7772 0.0055
0.1131 -0.4867 0.1215
-0.0333 -0.4543 0.1132
0.0787 -0.4410 -0.2010
-0.0705 0.6533 0.1051
0.0123 0.7350 -0.1563
-0.1471 -0.0420 -0.0355
-0.0538 -0.6793 -0.0418
0.0767 0.3405 -0.1025
0.0626 0.3232 -0.2187
0.1168 -0.0249 -0.1216
0.0868 0.3530 -0.1864
-0.0799 0.1292 0.1345
-0.0541 0.7691 -0.1675
-0.1171 -0.2951 -0.0882
0.1007 0.1250 -0.1300
0.0120 0.5922 0.0453
-0.1419 -0.1739 -0.0461
-0.0242 -0.4771 -0.1623
0.0156 -0.4349 0.1485
-0.0557 0.2281 -0.2037
-0.1296 0.2829 0.1088
0.1627 -0.7039 0.0882
0.0260 -0.7980 -0.0254
0.1006 -0.0134 -0.1841
-0.0068 -0.0497 -0.2063
-0.0736 0.7206 0.0538
-0.1522 0.1724 0.0061
-0.1586 0.1403 -0.0688
-0.0823 0.7507 0.0244
0.1110 -0.4674 -0.1825
-0.0794 0.0703 -0.1777
0.1106 -0.6485 -0.1746
-0.0978 0.5737 0.1195
0.0094 0.6531 0.0627
0.0765 0.3803 -0.2040
-0.0082 0.6383 -0.2347
0.0750 0.4911 -0.1872
0.0932 0.2671 -0.1729
-0.0578 0.6136 -0.2137
-0.0690 0.7649 0.0166
0.0167 0.6110 0.0307
0.0848 -0.2386 0.1050
-0.1191 0.2060 -0.1593
-0.0995 -0.4034 -0.0754
-0.0744 0.7938 -0.0227
0.1402 -0.6837 0.1227
0.1392 -0.2913 -0.1440
0.0587 0.1635 -0.0134
-0.0174 -0.7442 -0.0240
-0.0608 -0.2799 0.0850
-0.0093 0.4845 0.0931
-0.1339 0.4252 0.1042
0.0817 0.0738 -0.2013
0.0119 0.4187 -0.2282
-0.0788 -0.1828 0.0747
-0.1042 0.1054 0.1080
0.1325 -0.5128 0.0802
0.0758 -0.6435 -0.1847
-0.0240 0.7672 -0.1686
0.0544 -0.0465 0.1152
0.0941 -0.7564 -0.1217
-0.1053 0.6053 0.1071
0.0755 0.2538 -0.0655
-0.1473 0.1769 -0.1222
0.1245 -0.1490 -0.1510
-0.0367 -0.3127 -0.1707
-0.1030 0.6310 0.0914
0.1133 -0.0458 -0.1630
0.0192 0.6516 -0.2207
0.0190 0.6941 -0.1958
0.0422 0.5499 -0.0803
-0.0277 -0.6889 -0.1210
0.0495 -0.8083 0.0304
-0.0650 0.2421 0.1418
-0.0060 0.7760 -0.1162
0.0539 0.5751 -0.1220
-0.0225 0.6326 0.1084
-0.0651 0.6912 0.0845
-0.0486 0.6630 0.1007
-0.0467 -0.4283 0.0896
-0.0194 0.7462 -0.1876
0.0816 0.4046 -0.1744
-0.0821 0.1890 0.1393
-0.0927 -0.4332 -0.0223
-0.0429 -0.4885 -0.1473
0.1460 -0.3173 -0.1173
-0.0185 -0.3121 -0.1785
-0.0172 0.4431 -0.2305
0.0061 0.2335 0.0871
-0.1618 0.3993 -0.0280
0.0604 0.0702 0.0298
0.0399 -0.7615 -0.1151
-0.0691 0.7502 -0.1810
-0.0932 -0.1951 -0.1486
-0.0841 -0.4657 -0.0894
0.0805 0.1484 -0.2032
-0.0196 0.7948 -0.1199
0.0655 0.5161 -0.2036
-0.0402 0.0301 0.1386
0.0635 0.6258 -0.1878
0.1259 -0.7572 0.0877
-0.0645 -0.3356 0.0642
-0.1415 0.2820 0.0520
-0.0202 -0.6324 0.0712
0.0449 -0.3482 -0.2073
0.0030 0.5499 -0.2331
-0.0219 0.4770 0.1220
0.0142 0.3236 0.0666
-0.1099 0.7772 -0.0986
0.1491 -0.7924 -0.0096
0.0889 -0.7732 0.0874
0.0339 0.4820 -0.2334
-0.1353 0.7384 -0.0777
-0.0068 0.0269 -0.2103
-0.1279 0.6345 0.0511
0.1103 -0.2597 0.0620
0.0537 -0.4858 -0.2017
-0.1025 0.7754 -0.1299
-0.1160 0.0560 0.0680
0.0934 -0.2976 0.0983
0.0675 0.4615 -0.2136
0.0493 0.1623 -0.2216
-0.0140 0.4039 -0.2222
0.0635 0.6109 -0.1615
0.1328 -0.7062 0.1172
0.0177 -0.7675 0.0268
0.0438 0.6610 -0.1469
0.1417 -0.2574 -0.1036
0.0011 0.1337 0.1251
-0.0984 0.7917 -0.0801
-0.0366 0.7484 -0.1903
0.0749 0.4304 -0.1955
-0.0115 0.5304 0.1007
-0.1258 -0.1217 -0.1241
-0.0483 0.1056 0.1436
0.1457 -0.5846 0.1002
-0.1567 0.5557 -0.0406
0.1878 -0.6699 0.0088
0.0219 0.0730 0.1159
-0.0641 0.3288 0.1394
0.1661 -0.7333 0.0616
0.0540 0.6286 -0.2055
0.0578 -0.7684 -0.1133
0.0445 -0.7748 -0.1021
0.0483 -0.7555 0.0835
0.0850 -0.7197 0.1266
0.0442 -0.3593 0.1428
0.0088 0.4309 0.0405
-0.0049 0.2012 0.1119
0.0821 0.3764 -0.1508
-0.0963 0.4092 -0.1931
-0.0786 -0.3861 -0.1189
0.1121 -0.3236 -0.1797
0.1085 0.0775 -0.1376
-0.0984 -0.3692 -0.0002
0.0581 0.4177 -0.2222
0.0153 -0.7015 0.0854
0.0821 -0.4522 0.1412
0.1519 -0.3560 -0.0748
-0.0939 0.7197 -0.1895
-0.0004 -0.7437 -0.1010
0.0563 0.4822 -0.2263
0.0399 -0.3154 -0.2015
-0.1403 0.0259 -0.1159
0.1467 -0.7410 0.0794
-0.0667 -0.4398 -0.1298
-0.0025 0.6098 0.1012
-0.0149 -0.1904 0.1455
0.0653 0.5682 -0.1982
-0.0346 0.4234 0.1468
0.0205 -0.1402 0.1515
0.1008 -0.5136 0.1416
0.0165 0.6727 0.0552
-0.0283 -0.0373 0.1501
-0.0263 0.2718 0.1193
-0.0118 0.0990 -0.2109
0.0928 -0.4238 0.1309
0.1153 -0.1162 -0.1655
0.1326 -0.8106 0.0004
-0.1321 0.3123 0.0954
0.0706 0.3986 -0.0844
-0.0864 -0.2461 0.0589
0.1360 -0.7192 -0.1216
-0.1413 0.6856 -0.1416
0.0533 -0.6301 0.1449
0.0690 -0.7369 -0.1397
0.1043 -0.3946 0.1093
0.1356 -0.8083 -0.0188
-0.1177 0.7346 -0.0351
0.1072 -0.1244 -0.0219
0.0102 -0.7349 -0.1219
-0.1115 0.1376 0.1191
0.1286 -0.8024 0.0361
-0.0418 -0.0606 -0.1877
-0.0280 0.4440 0.1302
-0.0924 0.2218 -0.1810
0.0155 0.2934 -0.2252
0.0396 0.6771 -0.1733
0.1646 -0.4621 -0.0997
0.0132 0.1018 -0.2157
0.0888 -0.7693 0.0907
0.1397 -0.2913 -0.0351
0.0744 0.1080 -0.0519
-0.1509 0.3155 -0.1265
-0.0468 -0.5447 0.0592
0.0490 -0.5826 0.1566
-0.0940 0.7654 -0.1494
-0.1584 0.2011 -0.0446
-0.0692 0.0105 0.1247
0.0286 -0.7817 -0.0756
0.1375 -0.8032 0.0119
0.0728 0.3463 -0.2108
-0.0482 -0.4884 0.0773
0.0754 -0.2893 -0.2034
0.1167 -0.3286 0.0395
-0.0089 0.7926 -0.0560
-0.1409 0.3986 0.0804
0.0908 -0.0762 0.0144
-0.0487 0.5468 -0.2222
0.1178 -0.4549 0.0998
0.1243 -0.2621 -0.1648
0.0183 0.7152 -0.1174
0.0250 -0.6071 0.1325
0.0527 0.4565 -0.0509
-0.0954 -0.3069 0.0206
-0.0008 -0.1992 -0.2037
-0.1400 -0.0643 -0.1020
0.1204 -0.7476 -0.1154
0.0098 -0.7775 -0.0474
-0.0693 -0.5554 -0.0773
-0.0499 -0.6492 -0.1097
0.0901 -0.1472 -0.1960
-0.0165 0.3194 -0.2273
-0.1049 0.1381 0.1234
-0.1084 0.7762 -0.0635
-0.0366 0.7205 -0.2079
-0.0765 0.7772 -0.1493
-0.0988 -0.0229 0.0781
0.0835 -0.1341 -0.2039
0.1185 -0.7879 -0.0782
-0.1483 0.5644 -0.1480
-0.0833 0.1484 -0.1815
-0.0179 -0.7164 0.0165
0.1747 -0.5592 -0.0795
0.1019 -0.3740 -0.1904
-0.1522 0.5252 0.0137
0.1211 -0.4273 0.0647
-0.1261 0.7013 -0.1617
-0.0217 0.2438 -0.2149
-0.1104 0.7072 0.0170
0.0176 -0.4422 -0.1893
-0.1279 0.4940 0.1003
0.1308 -0.8062 0.0245
-0.1184 0.1746 0.0997
0.1521 -0.6435 -0.1424
0.0961 0.0461 -0.0946
-0.0868 0.7971 -0.0613
0.1100 -0.1709 -0.1756
-0.1395 0.5744 0.0303
-0.1221 0.4665 0.1184
0.1485 -0.3844 -0.1285
-0.1467 0.4153 0.0519
-0.0843 0.7224 -0.1977
0.1778 -0.6541 0.0731
-0.0187 0.1142 0.1409
0.1019 -0.0546 -0.0772
0.1600 -0.5324 -0.1184
-0.1619 0.5279 -0.0971
-0.0202 -0.2088 -0.1918
0.0942 -0.1203 0.0642
-0.1165 0.6049 -0.1795
-0.1366 0.6455 -0.0036
-0.1118 -0.0426 -0.1447
0.0211 -0.5954 -0.1738
-0.0066 0.7097 -0.2016
-0.1646 0.6384 -0.0655
-0.1290 0.3393 -0.1621
-0.0471 0.6794 -0.2205
-0.1633 0.4369 -0.0815
0.1791 -0.7173 -0.0169
0.1257 -0.6118 -0.1709
0.0217 0.7242 0.0125
-0.1358 0.6468 -0.1678
-0.1654 0.6186 -0.1205
-0.0498 -0.2203 0.1130
0.1017 0.0414 -0.1771
0.0691 -0.2054 -0.2084
0.0497 0.0084 0.1021
-0.0500 -0.1511 -0.1779
0.0131 0.7003 0.0365
0.0105 -0.3735 -0.1903
0.1273 -0.5514 0.1138
0.1137 0.0105 -0.1528
0.0451 -0.7805 0.0592
0.0137 0.7064 0.0251
0.0451 0.3667 -0.0018
-0.1090 0.2050 0.1228
-0.0008 0.7708 -0.0875
0.1315 -0.3916 0.0080
0.0492 0.2454 -0.2193
-0.0892 0.7728 -0.1483
0.0623 -0.1210 -0.2109
0.1048 0.0642 -0.1254
0.0175 0.7309 -0.1475
0.1037 0.1015 -0.1637
0.0639 -0.0485 -0.2139
-0.0300 -0.2579 0.1301
-0.1306 0.2057 0.0735
-0.1072 -0.0847 0.0489
0.0232 -0.6719 -0.1641
-0.0458 -0.5842 -0.1369
-0.0067 -0.7618 -0.0365
0.1170 -0.1103 -0.1057
0.1075 -0.6054 -0.1833
0.0018 -0.7569 -0.0809
-0.1098 -0.1436 0.0169
0.0804 0.1997 -0.0891
0.1324 -0.5573 -0.1643
-0.0307 0.6554 0.1008
0.0899 -0.7838 -0.0992
-0.1620 0.3427 -0.0509
-0.1336 0.7238 -0.1239
0.1058 -0.5176 -0.1880
0.0095 -0.2804 -0.2012
-0.0836 0.3178 0.1407
-0.1557 0.2559 -0.0202
-0.1046 0.3132 0.1301
-0.1132 0.3831 0.1286
-0.0144 0.1693 -0.2131
0.1672 -0.5428 0.0101
-0.0545 -0.6534 -0.0007
0.1017 -0.2961 -0.1914
-0.0112 0.2837 0.1036
-0.1006 0.6175 -0.1889
0.0613 -0.7507 0.1008
-0.0951 0.4600 -0.1915
0.0912 -0.7763 -0.1067
-0.0883 0.0162 -0.1702
0.0750 -0.7373 -0.1399
-0.1508 0.4106 -0.1481
-0.0216 0.5540 -0.2279
0.1263 -0.2317 0.0133
-0.1334 -0.2329 -0.0664
-0.1523 0.2297 -0.1070
0.0337 -0.2886 0.1418
-0.0693 0.7264 -0.2015
0.0272 -0.7655 -0.1034
-0.0214 -0.6336 -0.1467
-0.1146 0.7726 -0.0841
-0.0269 -0.4017 0.1218
-0.0197 0.6755 -0.2248
-0.0172 0.7881 -0.1328
0.1373 -0.3549 -0.1577
0.1199 -0.2011 -0.1643
-0.1367 -0.1581 -0.0931
-0.0256 0.7997 -0.1097
0.1354 -0.7431 0.0894
-0.1385 0.0861 0.0242
0.0548 -0.7434 -0.1346
0.0983 -0.2290 -0.1917
-0.1610 0.5050 -0.0589
-0.0211 -0.5739 0.0959
-0.1433 -0.1026 -0.0528
-0.0701 0.0665 0.1319
-0.0670 -0.0606 0.1141
0.0002 0.7450 -0.1728
-0.0261 0.7998 -0.0997
0.1389 -0.7088 0.1115
0.0280 0.6124 -0.2316
0.0513 0.5960 -0.2179
-0.1299 0.3347 0.1150
-0.1449 0.0871 -0.1007
-0.0428 -0.3213 0.1110
0.0236 -0.7941 -0.0235
0.1565 -0.7754 0.0267
-0.0029 0.6224 -0.2361
0.0617 -0.0470 0.0849
0.1426 -0.4846 0.0410
-0.1348 0.1221 -0.1353
