ply
format ascii 1.0
comment generated by io_xyz.hpp
element vertex 800
property float x
property float y
property float z
end_header
-0.2287 -0.0107 -0.1988
-0.3020 0.0324 -0.1675
-0.2459 0.0519 -0.1915
-0.3024 -0.0542 -0.1591
-0.3192 -0.0050 -0.1206
-0.3077 -0.0885 -0.1080
-0.3020 -0.0435 -0.0851
-0.2944 -0.1324 -0.1408
-0.2409 -0.1000 -0.1950
-0.2386 -0.1889 -0.1896
-0.0555 0.0683 -0.2945
-0.1238 0.1175 -0.2564
-0.0689 0.1385 -0.2953
-0.0059 0.0794 -0.3121
-0.0097 0.1568 -0.3060
-0.0044 0.0515 -0.3129
-0.1822 -0.0156 -0.2179
-0.1887 0.0733 -0.2171
-0.1166 0.0294 -0.2488
-0.1223 -0.0572 -0.2411
-0.1791 -0.0713 -0.2224
-0.1753 -0.1431 -0.2270
-0.1997 -0.2282 -0.2140
-0.1715 -0.2171 -0.2270
-0.1162 -0.1248 -0.2465
-0.1139 -0.1698 -0.2488
-0.1120 -0.1980 -0.2484
-0.0620 -0.0004 -0.2751
-0.0609 -0.0282 -0.2713
-0.0361 -0.0156 -0.2865
-0.0017 0.0004 -0.3060
-0.0525 -0.1007 -0.2697
-0.0002 -0.0320 -0.2999
0.0025 -0.0858 -0.2903
0.0040 -0.1148 -0.2862
-0.0563 -0.1866 -0.2640
0.0067 -0.1679 -0.2800
-0.1700 -0.2449 -0.2274
-0.1040 -0.2720 -0.2461
-0.0479 -0.2720 -0.2598
0.0086 -0.2018 -0.2758
0.0109 -0.2484 -0.2720
0.0132 -0.2945 -0.2697
-0.2985 -0.1026 -0.0881
-0.2783 -0.1225 -0.0591
-0.2615 -0.0733 -0.0233
-0.2528 -0.1572 -0.0107
-0.2390 -0.1080 0.0195
-0.2779 -0.1709 -0.0950
-0.2577 -0.2056 -0.0465
-0.2417 -0.1919 0.0378
-0.2364 -0.1675 0.0553
-0.2360 -0.2190 0.0923
-0.2463 -0.2411 0.0019
-0.2448 -0.2762 0.0504
-0.2657 -0.2186 -0.1305
-0.2566 -0.2541 -0.0824
-0.2459 -0.2663 -0.1660
-0.2303 -0.2491 -0.1885
-0.2535 -0.3022 -0.1179
-0.2482 -0.2892 -0.0340
-0.2474 -0.3247 0.0149
-0.2516 -0.3380 -0.0694
-0.2497 -0.3739 -0.0210
-0.2394 -0.3117 0.0988
-0.2226 -0.3396 0.1377
-0.2474 -0.3605 0.0630
-0.2303 -0.3823 0.1209
-0.2512 -0.4090 0.0275
-0.2444 -0.4449 0.0755
-0.2215 -0.4807 0.1267
-0.2280 -0.2923 -0.1858
-0.2432 -0.3502 -0.1534
-0.2264 -0.3285 -0.1816
-0.2177 -0.3964 -0.1854
-0.2554 -0.3865 -0.1053
-0.2551 -0.4224 -0.0568
-0.2547 -0.4353 -0.1408
-0.2638 -0.4712 -0.0927
-0.2230 -0.4891 -0.1858
-0.2680 -0.5200 -0.1282
-0.2505 -0.5677 -0.1637
-0.2150 -0.5444 -0.1919
-0.2551 -0.4582 -0.0084
-0.2512 -0.4937 0.0401
-0.2638 -0.5071 -0.0439
-0.2615 -0.5425 0.0042
-0.2341 -0.5280 0.0885
-0.2142 -0.5708 0.1255
-0.2478 -0.5776 0.0527
-0.2230 -0.6116 0.1015
-0.2863 -0.6406 -0.0671
-0.2753 -0.5857 -0.0267
-0.2753 -0.5616 -0.0839
-0.2737 -0.6082 -0.1209
-0.2882 -0.6765 -0.0187
-0.2699 -0.6330 0.0126
-0.2734 -0.6108 -0.0053
-0.2692 -0.7135 0.0389
-0.2440 -0.6616 0.0656
-0.2283 -0.1431 0.0736
-0.2203 -0.1782 0.1217
-0.1726 -0.2957 0.1892
-0.1936 -0.2125 0.1705
-0.1742 -0.2251 0.1892
-0.1120 -0.2652 0.2037
-0.1139 -0.2324 0.2030
-0.1616 -0.3766 0.1927
-0.1097 -0.3079 0.2049
-0.1070 -0.3605 0.2083
-0.1059 -0.3865 0.2102
-0.1879 -0.5132 0.1728
-0.1032 -0.4452 0.2205
-0.0521 -0.2652 0.2018
-0.0536 -0.2278 0.2018
0.0086 -0.2736 0.1938
-0.0002 -0.1717 0.2014
-0.0460 -0.3834 0.2110
0.0139 -0.3750 0.2041
-0.0433 -0.4391 0.2228
0.0170 -0.4369 0.2224
-0.2074 -0.3125 -0.2014
-0.1677 -0.2926 -0.2259
-0.1643 -0.3556 -0.2224
-0.1089 -0.3579 -0.2396
-0.1532 -0.4418 -0.2221
-0.1002 -0.4285 -0.2388
-0.0986 -0.4605 -0.2388
-0.1612 -0.5311 -0.2171
-0.0963 -0.5029 -0.2392
-0.0448 -0.3365 -0.2583
0.0147 -0.3251 -0.2690
-0.0422 -0.3831 -0.2583
-0.0410 -0.4109 -0.2579
-0.0322 -0.4849 -0.2564
0.0185 -0.3972 -0.2690
0.0231 -0.4830 -0.2640
-0.2020 -0.6120 -0.1942
-0.2833 -0.6891 -0.1026
-0.2692 -0.6692 -0.1286
-0.2638 -0.7360 -0.1339
-0.2509 -0.6517 -0.1511
-0.2016 -0.6967 -0.1835
-0.2985 -0.7253 -0.0546
-0.2966 -0.7612 -0.0061
-0.2993 -0.7738 -0.0900
-0.3096 -0.8100 -0.0420
-0.2058 -0.7848 -0.1778
-0.2844 -0.8214 -0.1259
-0.2619 -0.8081 -0.1419
-0.3104 -0.8588 -0.0775
-0.2539 -0.8623 -0.1519
-0.2924 -0.9061 -0.1129
-0.1994 -0.8489 -0.1839
-0.2448 -0.9515 -0.1435
-0.1971 -0.8932 -0.1812
-0.1952 -0.9309 -0.1732
-0.1932 -0.9702 -0.1633
-0.1520 -0.5956 -0.2198
-0.1494 -0.6398 -0.2201
-0.0815 -0.5704 -0.2438
-0.0944 -0.6589 -0.2377
-0.0326 -0.5712 -0.2545
-0.0292 -0.6391 -0.2518
0.0273 -0.5681 -0.2564
0.0307 -0.6375 -0.2495
-0.0273 -0.6746 -0.2491
0.0322 -0.6673 -0.2461
-0.1482 -0.6700 -0.2194
-0.1341 -0.7417 -0.2182
-0.1425 -0.8279 -0.2102
-0.0841 -0.7425 -0.2324
-0.0807 -0.8111 -0.2255
-0.0250 -0.7188 -0.2446
-0.0231 -0.7627 -0.2396
-0.0208 -0.8024 -0.2324
0.0349 -0.7200 -0.2385
0.0368 -0.7520 -0.2335
0.0486 -0.8172 -0.2114
-0.0792 -0.8440 -0.2228
-0.1414 -0.9138 -0.2011
-0.0769 -0.8905 -0.2190
-0.0742 -0.9328 -0.2140
-0.0727 -0.9729 -0.2083
-0.0189 -0.8432 -0.2243
-0.0166 -0.8882 -0.2175
-0.0143 -0.9287 -0.2129
-0.0124 -0.9683 -0.2095
0.0448 -0.9016 -0.1950
0.0540 0.0744 -0.2976
0.0513 0.1332 -0.2793
0.0742 0.1225 -0.2633
0.0586 0.0004 -0.3010
0.1135 0.0889 -0.2140
0.1051 0.0401 -0.2503
0.1169 0.0225 -0.2255
0.0826 -0.0095 -0.2862
0.1188 -0.0462 -0.2240
0.0601 -0.0271 -0.2980
0.0727 -0.0946 -0.2781
0.0715 -0.1816 -0.2667
0.1230 -0.1011 -0.2049
0.1150 -0.1278 -0.2247
0.1257 -0.1469 -0.1976
0.1272 -0.2110 -0.2037
0.1330 0.0542 -0.1660
0.1253 0.0053 -0.2018
0.1528 0.0195 -0.1171
0.1383 -0.0298 -0.1530
0.1742 -0.0080 -0.0633
0.1536 -0.0645 -0.1045
0.1288 -0.0786 -0.1889
0.1417 -0.1137 -0.1400
0.1337 -0.1625 -0.1763
0.0822 -0.2636 -0.2537
0.1749 -0.0507 -0.0202
0.1665 -0.0996 -0.0561
0.1673 -0.0870 0.0279
0.1715 -0.1347 -0.0076
0.1581 -0.1484 -0.0916
0.1719 -0.1831 -0.0431
0.1478 -0.1236 0.0763
0.1654 -0.1709 0.0404
0.1215 -0.1599 0.1160
0.1459 -0.2076 0.0889
0.1780 -0.2186 0.0050
0.1765 -0.2545 0.0534
0.1517 -0.1973 -0.1274
0.1723 -0.2316 -0.0786
0.1478 -0.2457 -0.1633
0.1704 -0.2804 -0.1148
0.1910 -0.2755 -0.0366
0.1910 -0.2774 0.0366
0.1936 -0.3155 -0.0668
0.2020 -0.3018 0.0179
0.2123 -0.3499 -0.0176
0.1383 -0.3274 0.1557
0.0631 -0.3655 0.1950
0.0780 -0.4494 0.2213
0.1349 -0.3865 0.1816
0.1066 -0.4491 0.2110
0.1375 -0.4334 0.1915
0.1436 -0.4853 0.1889
0.1681 -0.2907 0.1019
0.1925 -0.3148 0.0836
0.1948 -0.3758 0.1106
0.2051 -0.3373 0.0664
0.2184 -0.3850 0.0309
0.2093 -0.4212 0.0790
0.1948 -0.4510 0.1183
0.0754 -0.3304 -0.2572
0.1345 -0.2953 -0.2003
0.1070 -0.3449 -0.2350
0.1375 -0.3804 -0.1931
0.0776 -0.3766 -0.2575
0.0792 -0.4052 -0.2564
0.0700 -0.4788 -0.2526
0.1154 -0.4285 -0.2221
0.1425 -0.4632 -0.1740
0.1131 -0.5128 -0.2091
0.1444 -0.5479 -0.1553
0.1620 -0.3293 -0.1503
0.1852 -0.3636 -0.1019
0.1971 -0.3827 -0.0755
0.1673 -0.4132 -0.1377
0.1986 -0.4182 -0.0675
0.1883 -0.4479 -0.0889
0.2051 -0.3987 -0.0530
0.1662 -0.4975 -0.1248
0.2020 -0.4830 -0.0408
0.2142 -0.4338 -0.0046
0.2093 -0.4697 0.0435
0.2035 -0.5219 0.0122
0.1780 -0.5425 0.1400
0.1997 -0.4998 0.0839
0.1994 -0.5544 0.0561
0.1978 -0.5902 0.1045
0.1883 -0.5319 -0.0763
0.1971 -0.5673 -0.0279
0.1707 -0.5815 -0.1118
0.1898 -0.6158 -0.0633
0.1986 -0.6028 0.0206
0.2089 -0.6387 0.0694
0.1959 -0.6513 -0.0153
0.2108 -0.6879 0.0355
0.0864 -0.5460 -0.2327
0.0616 -0.5639 -0.2453
0.0879 -0.5761 -0.2266
0.0902 -0.6269 -0.2182
0.0666 -0.6478 -0.2327
0.1124 -0.5971 -0.1965
0.0921 -0.6604 -0.2137
0.1498 -0.6311 -0.1461
0.1200 -0.6807 -0.1839
0.1543 -0.7158 -0.1404
0.0948 -0.7119 -0.2060
0.0708 -0.7318 -0.2198
0.0963 -0.7451 -0.1995
0.0982 -0.7879 -0.1877
0.1234 -0.7646 -0.1709
0.1036 -0.8516 -0.1629
0.1581 -0.7993 -0.1202
0.1665 -0.8417 -0.0797
0.1372 -0.8840 -0.1099
0.1803 -0.6650 -0.0992
0.1932 -0.7001 -0.0507
0.2032 -0.7348 -0.0023
0.1849 -0.7490 -0.0866
0.1929 -0.7844 -0.0382
0.1036 -0.9359 -0.1389
-0.2131 -0.6284 0.1251
-0.2180 -0.6955 0.1141
-0.2108 -0.6742 0.1301
-0.2089 -0.7116 0.1362
-0.2432 -0.7455 0.0782
-0.2154 -0.7795 0.1267
-0.2066 -0.7570 0.1431
-0.2047 -0.7959 0.1496
-0.1543 -0.5521 0.2129
-0.0971 -0.5605 0.2442
-0.0372 -0.5597 0.2476
0.0208 -0.5147 0.2404
0.0185 -0.4689 0.2304
0.0231 -0.5521 0.2419
-0.1807 -0.5967 0.1858
-0.1539 -0.6208 0.2201
-0.2005 -0.6463 0.1499
-0.1715 -0.6803 0.1984
-0.1524 -0.6490 0.2213
-0.1379 -0.6303 0.2346
-0.0944 -0.6074 0.2499
-0.1501 -0.6963 0.2213
-0.0906 -0.7123 0.2480
-0.1944 -0.7303 0.1625
-0.1486 -0.7638 0.2186
-0.1955 -0.8264 0.1667
-0.1463 -0.8527 0.2392
-0.0853 -0.7966 0.2560
-0.0345 -0.6047 0.2499
0.0246 -0.6253 0.2316
0.0311 -0.7085 0.2327
0.0349 -0.7905 0.2495
-0.2661 -0.7970 0.0534
-0.2924 -0.8447 0.0065
-0.2600 -0.8794 0.0580
-0.2390 -0.8295 0.0908
-0.2131 -0.8638 0.1396
-0.2005 -0.8970 0.1896
-0.2345 -0.9134 0.1038
-0.2242 -0.9485 0.1526
-0.3024 -0.8936 -0.0294
-0.2772 -0.9283 0.0195
-0.3005 -0.9420 -0.0649
-0.2852 -0.9771 -0.0164
-0.2554 -0.9634 0.0603
-0.2272 -0.9844 0.2007
-0.1978 -0.9313 0.2316
0.0822 -0.5361 0.2221
0.0857 -0.5967 0.2064
0.0868 -0.6707 0.1950
0.1173 -0.5815 0.1881
0.1448 -0.5677 0.1721
0.1467 -0.6043 0.1702
0.1482 -0.6417 0.1709
0.1517 -0.7097 0.1789
0.0899 -0.7551 0.2060
0.0967 -0.8363 0.2224
0.1562 -0.7940 0.1873
0.1715 -0.6272 0.1526
0.2139 -0.6646 0.1240
0.1791 -0.7108 0.1656
0.2112 -0.6906 0.1404
0.2131 -0.7318 0.1488
0.2299 -0.7211 0.0816
0.2291 -0.7570 0.1301
0.2154 -0.7726 0.1507
0.1608 -0.8810 0.1953
0.1597 -0.9122 -0.0568
0.1669 -0.9840 0.1251
0.1673 -0.9832 0.0275
0.2177 -0.7699 0.0427
0.2013 -0.8195 0.0103
0.2196 -0.8172 0.1026
0.2047 -0.8546 0.0588
0.2016 -0.8420 0.1427
0.1929 -0.8909 0.1072
0.1742 -0.9279 0.1553
0.1814 -0.8691 -0.0256
0.1856 -0.9042 0.0229
0.1662 -0.9538 -0.0134
0.1799 -0.9405 0.0713
0.1005 -0.8909 0.2594
0.1398 -0.9168 0.2388
0.1631 -0.9592 0.1965
0.1559 -1.0000 0.2518
0.1250 -0.9687 -0.0973
-0.2936 0.9939 -0.0465
-0.2936 1.0000 0.0141
-0.2940 0.9485 -0.0061
-0.1757 0.9737 -0.2282
-0.2303 0.9676 0.0637
-0.2524 0.9271 0.0401
-0.2375 0.9897 -0.1450
-0.2619 0.9493 -0.0919
-0.2493 0.9016 -0.1278
-0.2306 0.9405 -0.1694
-0.2837 0.9126 -0.0443
-0.2722 0.8775 0.0042
-0.2711 0.8646 -0.0794
-0.2760 0.8287 -0.0313
-0.1116 0.9306 -0.2602
-0.0509 0.9473 -0.2755
-0.0490 0.9096 -0.2770
-0.2425 0.8535 -0.1633
-0.2283 0.8726 -0.1885
-0.2325 0.8104 -0.2053
-0.2066 0.8909 -0.2114
-0.1696 0.9084 -0.2324
-0.1608 0.8455 -0.2446
-0.2634 0.8165 -0.1148
-0.2772 0.7802 -0.0668
-0.2615 0.7684 -0.1511
-0.2779 0.7318 -0.1026
-0.2165 0.7589 -0.2320
-0.1623 0.7730 -0.2510
-0.1604 0.7356 -0.2522
-0.2577 0.7200 -0.1866
-0.2783 0.6829 -0.1377
-0.2184 0.6726 -0.2224
-0.2707 0.6291 -0.1656
-0.1585 0.6982 -0.2507
-0.1066 0.8615 -0.2652
-0.0471 0.8756 -0.2797
-0.0910 0.8016 -0.2781
-0.1028 0.7135 -0.2724
-0.0429 0.8001 -0.2877
-0.0395 0.7337 -0.2896
-0.2165 0.5864 -0.2137
-0.1551 0.6314 -0.2427
-0.1456 0.5441 -0.2396
-0.0380 0.6929 -0.2877
-0.0998 0.6284 -0.2614
-0.0910 0.5589 -0.2594
-0.0357 0.6547 -0.2839
-0.0326 0.5891 -0.2831
-0.0895 0.5235 -0.2614
-0.0410 0.5002 -0.2831
0.0746 0.9950 -0.2293
0.1482 0.9477 0.0431
0.1253 0.9702 -0.0839
0.1009 0.9554 -0.1736
0.1124 0.9203 -0.1248
0.1333 0.8813 -0.0836
0.1589 0.9355 -0.0404
0.1604 0.8997 0.0076
0.1604 0.8512 -0.0279
0.0093 0.9466 -0.2697
0.0109 0.9195 -0.2717
0.0681 0.9660 -0.2392
0.0441 0.9393 -0.2579
0.0128 0.8756 -0.2751
0.0704 0.9290 -0.2419
0.0761 0.8565 -0.2469
0.0166 0.8058 -0.2808
0.0208 0.7333 -0.2839
0.0776 0.7871 -0.2514
0.0795 0.7444 -0.2533
0.0601 0.7238 -0.2682
0.0818 0.7116 -0.2503
0.0967 0.9065 -0.2095
0.1112 0.8718 -0.1610
0.1089 0.8230 -0.1965
0.1223 0.8363 -0.1122
0.1402 0.8016 -0.0702
0.1150 0.7879 -0.1480
0.1211 0.7524 -0.0996
0.0979 0.7741 -0.2324
0.1127 0.7390 -0.1839
0.1135 0.7035 -0.1351
0.1013 0.6902 -0.2194
0.1131 0.6551 -0.1709
0.0223 0.7001 -0.2842
0.0242 0.6559 -0.2804
0.0277 0.5933 -0.2793
0.0837 0.6612 -0.2400
0.0658 0.6398 -0.2556
0.0860 0.6242 -0.2324
0.0864 0.5563 -0.2327
0.0322 0.5052 -0.2789
0.1032 0.6059 -0.2068
-0.1398 0.9939 0.1610
-0.1162 0.9802 0.1816
-0.0822 0.9611 0.2098
-0.0532 0.9233 0.2362
0.0666 0.9195 0.2778
0.1250 0.9313 0.2522
-0.2825 0.6471 -0.0900
-0.2791 0.6734 -0.0706
-0.2768 0.6299 -0.0660
-0.2852 0.5986 -0.1255
-0.2764 0.5570 -0.0683
-0.2745 0.5849 -0.0614
-0.2322 0.9138 0.0595
-0.1688 0.9416 0.1190
-0.1932 0.8939 0.0889
-0.1704 0.8783 0.1126
-0.2272 0.8398 0.0473
-0.2455 0.7944 0.0172
-0.2253 0.7787 0.0404
-0.1677 0.8115 0.1064
-0.1952 0.7612 0.0660
-0.1623 0.7261 0.1114
-0.1143 0.9096 0.1820
-0.1486 0.8611 0.1377
-0.1288 0.8260 0.1862
-0.1097 0.8531 0.2056
-0.1135 0.7982 0.2404
-0.0841 0.8771 0.2224
-0.0494 0.8432 0.2552
-0.1440 0.7772 0.1507
-0.1410 0.7417 0.1988
-0.1532 0.6925 0.1633
-0.0452 0.7604 0.2823
-0.1089 0.6234 0.2602
-0.0410 0.6700 0.2926
-0.1456 0.6570 0.2114
-0.0376 0.6055 0.2907
-0.2627 0.7455 -0.0183
-0.2211 0.7104 0.0282
-0.2741 0.6959 -0.0542
-0.2432 0.6620 -0.0057
-0.2119 0.6345 0.0343
-0.1841 0.6780 0.0790
-0.1684 0.6429 0.1274
-0.1601 0.6696 0.1465
-0.1841 0.5940 0.0916
-0.2634 0.6124 -0.0416
-0.2261 0.5792 0.0072
-0.2158 0.6051 0.0267
-0.2139 0.5647 0.0275
-0.2474 0.5292 -0.0286
-0.2108 0.4945 0.0263
-0.1971 0.5444 0.0557
-0.1555 0.6070 0.1705
-0.1673 0.5589 0.1400
-0.1528 0.5105 0.1713
-0.1795 0.5097 0.1045
-0.1910 0.4609 0.0687
-0.1738 0.4262 0.1171
-0.1494 0.3846 0.1751
-0.1250 0.5742 0.2243
-0.0307 0.4792 0.2591
-0.1181 0.3575 0.2144
-0.0273 0.4132 0.2526
-0.0235 0.3415 0.2434
-0.2722 0.5502 -0.1622
-0.2886 0.5147 -0.1129
-0.2696 0.4632 -0.1549
-0.2688 0.4765 -0.0733
-0.2764 0.4311 -0.1000
-0.2657 0.4136 -0.0759
-0.2650 0.3758 -0.1450
-0.2631 0.3453 -0.0748
-0.2776 0.2980 -0.1229
-0.2520 0.3304 -0.1644
-0.2589 0.2823 -0.0603
-0.2676 0.2633 -0.0744
-0.2570 0.2472 -0.0523
-0.2650 0.2545 -0.1641
-0.2894 0.2137 -0.1103
-0.2703 0.1789 -0.0618
-0.2551 0.2041 -0.0439
-0.3008 0.1644 -0.1461
-0.2448 0.2049 -0.1908
-0.2985 0.1286 -0.0981
-0.2497 0.1473 -0.0263
-0.2699 0.0946 -0.0492
-0.2463 0.0557 -0.0092
-0.3165 0.0794 -0.1335
-0.3092 0.1045 -0.1152
-0.3085 0.0935 -0.1515
-0.2776 0.1171 -0.1816
-0.2493 0.1156 -0.1911
-0.3050 0.0408 -0.0939
-0.2676 0.0107 -0.0362
-0.2345 0.5044 -0.1965
-0.2097 0.5170 -0.2118
-0.2310 0.4460 -0.0156
-0.2493 0.3968 -0.0515
-0.2081 0.4872 -0.2102
-0.2352 0.4204 -0.1839
-0.2058 0.4380 -0.2056
-0.2024 0.3777 -0.2026
-0.1490 0.4590 -0.2339
-0.1700 0.3754 -0.2190
-0.1421 0.3728 -0.2312
-0.0872 0.4872 -0.2629
-0.0822 0.4155 -0.2663
-0.0242 0.4334 -0.2862
-0.2062 0.4105 0.0279
-0.2196 0.3625 -0.0031
-0.2005 0.3228 0.0362
-0.1841 0.3770 0.0813
-0.1677 0.3422 0.1297
-0.1467 0.3167 0.1850
-0.1833 0.2930 0.0942
-0.1795 0.2572 0.1427
-0.2406 0.3132 -0.0385
-0.2142 0.2789 0.0099
-0.2394 0.2289 -0.0259
-0.1994 0.2491 0.0626
-0.2192 0.1942 0.0225
-0.2161 0.1587 0.0713
-0.1997 0.2163 0.1133
-0.1906 0.2907 -0.2037
-0.1940 0.2156 -0.2072
-0.1387 0.3102 -0.2301
-0.1295 0.2457 -0.2385
-0.1913 0.1633 -0.2159
-0.1662 0.1587 -0.2293
-0.1314 0.1740 -0.2472
-0.1047 0.3300 -0.2541
-0.0799 0.3419 -0.2682
-0.0776 0.3045 -0.2736
-0.0212 0.3743 -0.2888
-0.0311 0.2850 -0.2903
-0.0761 0.2747 -0.2781
-0.0765 0.1919 -0.2854
-0.0128 0.2156 -0.2949
-0.2264 0.1099 0.0351
-0.2417 -0.0282 0.0038
-0.1368 0.2072 0.2148
-0.1635 0.2224 0.1911
-0.2142 0.1229 0.1194
-0.1982 0.1793 0.1602
-0.2009 0.0878 0.1679
-0.1917 0.1133 0.1862
-0.1936 0.1560 0.1778
-0.1742 0.1381 0.2037
-0.1345 0.1629 0.2213
-0.1894 0.0694 0.1942
-0.1738 0.0538 0.2163
-0.1280 0.0347 0.2457
-0.0765 0.2041 0.2232
-0.0166 0.2121 0.2171
-0.0746 0.1694 0.2240
-0.0139 0.1564 0.2125
-0.0681 0.0420 0.2407
-0.0113 0.0599 0.2144
-0.2165 0.0744 0.0839
-0.2055 0.0393 0.1324
-0.2215 0.0259 0.0481
-0.2070 -0.0095 0.0965
-0.1879 0.0122 0.1934
-0.1952 -0.0443 0.1450
-0.1803 -0.0858 0.1839
-0.1650 -0.0301 0.2293
-0.1261 0.0008 0.2507
-0.2180 -0.0580 0.0610
-0.2070 -0.0935 0.1095
-0.1913 -0.1282 0.1580
-0.0658 -0.0015 0.2469
-0.0090 -0.0267 0.2228
-0.1200 -0.1194 0.2343
-0.1784 -0.1450 0.1812
-0.1761 -0.1889 0.1873
-0.1280 -0.1641 0.2114
-0.0601 -0.1145 0.2358
-0.0010 -0.0881 0.2201
-0.0570 -0.1652 0.2179
0.0704 0.8474 0.2671
0.1421 0.9599 0.1274
0.1597 0.9252 0.1759
0.1513 0.9119 0.0916
0.1658 0.8771 0.1404
0.1295 0.8649 0.2549
0.1314 0.8359 0.2602
0.1555 0.8894 0.2240
0.1818 0.8424 0.1889
0.1940 0.8092 0.2381
0.1570 0.8638 0.0561
0.1608 0.8283 0.1042
0.1677 0.8157 0.0206
0.1631 0.7802 0.0687
0.1719 0.7932 0.1530
0.1963 0.7577 0.1999
0.1566 0.7440 0.1175
0.1608 0.7085 0.1656
0.0746 0.7673 0.2823
0.0811 0.6429 0.2823
0.1997 0.6887 0.1961
0.1417 0.7150 -0.0565
0.1692 0.7676 -0.0149
0.1734 0.7322 0.0332
0.1692 0.6833 -0.0023
0.1555 0.6955 0.0813
0.1421 0.6593 0.1297
0.1635 0.6475 0.0458
0.1456 0.6040 0.1038
0.1257 0.6684 -0.0866
0.1433 0.6475 -0.0568
0.1234 0.6200 -0.1225
0.1498 0.5876 -0.0767
0.1566 0.6345 -0.0382
0.1799 0.5998 0.0107
0.1715 0.5635 0.0588
0.1982 0.5525 -0.0252
0.2089 0.5086 0.0168
0.0891 0.4910 0.2518
0.0925 0.4262 0.2583
0.2047 0.5872 0.2243
0.1471 0.5345 0.1873
0.1395 0.5750 0.1427
0.2032 0.6024 0.3129
0.1467 0.5544 0.1274
0.1578 0.5273 0.1072
0.1692 0.4922 0.1557
0.1894 0.4807 0.0717
0.1883 0.4449 0.1198
0.2070 0.3743 0.2171
0.2074 0.4101 0.1683
0.3192 0.7058 0.1816
0.0967 0.3445 0.2488
0.0391 0.4197 -0.2697
0.0925 0.4723 -0.2263
0.0979 0.3899 -0.2129
0.1230 0.5712 -0.1583
0.1482 0.5380 -0.1042
0.1131 0.5227 -0.1938
0.1311 0.4880 -0.1454
0.1539 0.4533 -0.0969
0.1860 0.5032 -0.0610
0.2127 0.4689 -0.0126
0.1837 0.4189 -0.0485
0.1177 0.4384 -0.1812
0.1322 0.4037 -0.1324
0.1570 0.3674 -0.0778
0.1173 0.3544 -0.1686
0.1330 0.3193 -0.1198
0.2020 0.4327 0.0362
0.2135 0.4544 0.0076
0.1875 0.3960 0.0843
0.1860 0.3834 0.0004
0.1711 0.3472 0.0485
0.1902 0.3605 0.1324
0.1906 0.3251 0.1812
0.1620 0.3068 0.0939
0.1612 0.2766 0.1435
0.1612 0.3090 -0.0538
0.1559 0.2850 -0.0713
0.1608 0.3026 0.0080
0.1627 0.2713 -0.0072
0.1631 0.2659 -0.0446
0.1662 0.3338 -0.0355
0.1646 0.2434 -0.0145
0.1478 0.2617 0.0610
0.1425 0.2255 0.1095
0.1524 0.2137 0.0252
0.1410 0.1770 0.0736
0.0460 0.3312 -0.2633
-0.0071 0.2869 -0.2892
0.0444 0.2701 -0.2629
0.1009 0.3041 -0.1988
0.0685 0.2549 -0.2400
0.1051 0.2209 -0.1850
0.0425 0.2125 -0.2659
0.0857 0.1713 -0.2270
0.1177 0.2705 -0.1557
0.1147 0.1423 -0.1847
0.1436 0.2358 -0.1068
0.1704 0.2060 -0.0649
0.1284 0.1866 -0.1427
0.1688 0.1534 -0.0912
0.1669 0.1870 0.0053
0.1585 0.1293 0.0382
0.1688 0.1473 0.0149
0.1711 0.1053 0.0198
0.1768 0.1663 -0.0099
0.1910 0.1187 -0.0454
0.1799 0.0820 0.0027
0.1452 0.1034 -0.1297
0.1749 0.0691 -0.0832
0.1841 0.0340 -0.0328
0.1032 0.2304 0.2007
0.1032 0.1076 0.1652
0.1341 0.1412 0.1221
0.0544 -0.0744 0.1850
0.0975 -0.0290 0.1473
0.1127 0.0492 0.1435
0.1108 0.0794 0.1522
0.1162 -0.0130 0.1267
0.1192 -0.0725 0.1209
0.0834 -0.1141 0.1599
0.1421 0.0927 0.0866
0.1188 0.0565 0.1347
0.1589 0.0454 0.0507
0.1726 0.0660 0.0240
0.1341 0.0088 0.0992
0.1749 0.0027 0.0084
0.1536 -0.0393 0.0637
