0.0305 -0.2282 -0.0226
0.0120 -0.2335 -0.0401
-0.0281 0.4558 -0.0975
0.0496 -0.4816 0.0041
-0.0568 0.5401 -0.0605
-0.0301 0.1572 -0.0186
-0.0406 0.6812 -0.1493
0.0854 -0.5918 -0.0147
0.0453 -0.4493 0.0059
0.0749 -0.5872 -0.0315
0.0430 -0.3250 -0.0719
-0.0328 0.2763 -0.0807
0.0706 -0.5470 -0.0436
0.1036 -0.6957 0.0661
0.0535 -0.3811 -0.0598
-0.0704 0.6789 -0.1538
-0.0790 0.6968 -0.1437
-0.0458 0.4855 -0.1048
0.0621 -0.4478 -0.0290
0.1059 -0.7118 0.0598
0.0457 -0.3815 -0.0017
-0.0138 0.0799 -0.0761
0.0789 -0.5750 0.0398
0.0725 -0.5700 -0.0370
0.0102 -0.0147 -0.0898
0.0006 0.1672 -0.0876
0.0059 0.0080 -0.0505
-0.0000 -0.0329 -0.0126
0.0140 0.0073 -0.0901
-0.0083 0.0811 -0.0305
0.0725 -0.5913 -0.0296
0.0614 -0.4892 -0.0529
-0.0030 0.0344 -0.0837
-0.0491 0.6349 -0.1010
0.0530 -0.4510 0.0114
0.0559 -0.5506 -0.0172
-0.0341 0.4696 -0.1169
0.0984 -0.6835 0.0715
0.0079 -0.1671 -0.0121
0.0843 -0.6788 -0.0116
0.0670 -0.4767 -0.0422
0.0581 -0.4838 -0.0519
0.0584 -0.4093 -0.0423
-0.0542 0.6870 -0.1640
-0.0193 0.3476 -0.1090
0.0042 -0.1715 -0.0370
0.0237 -0.1587 -0.0829
-0.0323 0.3782 -0.1019
0.1338 -0.7150 -0.0071
-0.0253 0.1368 -0.0607
0.0515 -0.4763 -0.0455
-0.0402 0.2917 -0.0513
-0.0266 0.4925 -0.1161
0.0139 -0.0029 -0.0719
-0.0241 0.1626 -0.0221
0.0792 -0.5708 -0.0312
0.0914 -0.6228 0.0434
-0.0202 0.2433 -0.0506
-0.0552 0.5176 -0.0533
0.0762 -0.6255 0.0587
0.0772 -0.5739 -0.0337
-0.0614 0.5971 -0.0939
0.1270 -0.6777 0.0434
-0.0163 0.1666 -0.0384
-0.0685 0.6629 -0.0706
0.0768 -0.5885 -0.0305
-0.0471 0.7032 -0.1321
0.0812 -0.5593 -0.0246
-0.0580 0.5457 -0.0827
-0.0301 0.1523 -0.0352
0.0354 -0.2171 -0.0550
-0.0401 0.4444 -0.1049
-0.0274 0.1183 -0.0275
0.0952 -0.6325 0.0290
-0.0549 0.5724 -0.0759
-0.0384 0.2434 -0.0333
-0.0089 0.2865 -0.1021
-0.0495 0.3914 -0.0442
-0.0116 -0.0289 -0.0392
-0.0565 0.4871 -0.0510
-0.0457 0.6150 -0.1030
0.0360 -0.3015 -0.0064
-0.0625 0.6508 -0.1483
0.0769 -0.6624 0.0743
-0.0269 0.4841 -0.1255
-0.0044 0.2321 -0.1018
-0.0445 0.3397 -0.0503
0.0865 -0.6741 -0.0142
-0.0604 0.5855 -0.0881
0.0879 -0.6127 -0.0125
0.0568 -0.5433 -0.0002
-0.0168 0.0201 -0.0315
0.1081 -0.6888 -0.0350
0.0039 0.0971 -0.0950
-0.0587 0.5586 -0.0778
0.0648 -0.5641 -0.0326
-0.0361 0.2224 -0.0231
0.0954 -0.6665 -0.0538
-0.0730 0.6416 -0.0501
-0.0496 0.4349 -0.0681
0.0018 -0.1273 -0.0186
-0.0171 0.0317 -0.0224
-0.0130 0.2670 -0.1042
-0.0886 0.6921 -0.1258
0.0075 -0.0290 -0.0376
0.0765 -0.5581 -0.0364
-0.0708 0.6771 -0.0963
-0.0499 0.6865 -0.1161
0.0525 -0.4932 0.0112
-0.0337 0.2803 -0.0298
-0.0260 0.4795 -0.1123
-0.0151 0.3316 -0.1092
-0.0480 0.6122 -0.0960
0.0583 -0.4110 -0.0519
-0.0271 0.1349 -0.0500
-0.0506 0.5457 -0.0682
-0.0515 0.4304 -0.0534
0.0403 -0.4298 -0.0159
-0.0357 0.2240 -0.0427
0.0007 -0.0668 -0.0725
-0.0109 0.3063 -0.1056
-0.0532 0.6246 -0.1466
0.1117 -0.6642 -0.0460
-0.0265 0.4986 -0.1258
-0.0627 0.5934 -0.1033
-0.0332 0.2192 -0.0226
-0.0284 0.4679 -0.1217
-0.0483 0.6782 -0.1168
0.0699 -0.4936 -0.0262
0.0094 0.0325 -0.0927
0.0500 -0.3849 -0.0158
0.0809 -0.5621 -0.0264
0.0243 -0.2126 -0.0767
-0.0469 0.3788 -0.0352
0.0371 -0.2180 -0.0683
-0.0573 0.5400 -0.0653
0.0725 -0.6897 0.0149
-0.0483 0.6371 -0.1017
0.0889 -0.5917 0.0146
-0.0124 0.3084 -0.1086
0.0309 -0.2319 -0.0791
0.0730 -0.5936 0.0497
0.0359 -0.3529 -0.0610
0.0322 -0.1720 -0.0673
-0.0431 0.3088 -0.0415
0.0299 -0.3133 -0.0010
-0.0351 0.3155 -0.0366
0.0223 -0.1724 -0.0232
0.0290 -0.3435 -0.0114
0.0300 -0.3604 -0.0237
0.0035 -0.1204 -0.0107
0.0531 -0.4598 -0.0519
-0.0753 0.6681 -0.0759
0.0547 -0.4155 -0.0593
-0.0457 0.5595 -0.0822
0.0520 -0.5160 -0.0137
-0.0501 0.6869 -0.1630
-0.0279 0.3038 -0.0945
-0.0340 0.3422 -0.0472
0.0803 -0.5718 -0.0281
0.0653 -0.5947 0.0152
-0.0340 0.6058 -0.1406
-0.0295 0.5161 -0.1172
-0.0295 0.5080 -0.1281
-0.0666 0.6209 -0.1015
0.0064 0.0290 -0.0910
0.0252 -0.1455 -0.0842
0.0992 -0.6869 -0.0278
-0.0477 0.4544 -0.0914
-0.0288 0.3953 -0.1076
0.0467 -0.3822 -0.0657
-0.0360 0.2139 -0.0286
-0.0688 0.6286 -0.1055
-0.0061 0.1834 -0.0997
-0.0127 0.3176 -0.0959
0.0879 -0.6208 0.0550
-0.0491 0.6267 -0.0984
-0.0467 0.3578 -0.0369
0.0470 -0.4779 -0.0139
0.0211 -0.0706 -0.0854
0.0747 -0.5644 -0.0379
-0.0097 0.0494 -0.0182
-0.0549 0.5650 -0.0721
0.0061 -0.1667 -0.0574
0.0276 -0.3006 -0.0610
0.1281 -0.7322 -0.0079
-0.0058 0.2259 -0.0876
0.0443 -0.4055 -0.0572
0.0080 -0.1455 -0.0091
-0.0538 0.4559 -0.0521
-0.0473 0.5833 -0.0869
0.0792 -0.5550 0.0094
0.0025 -0.1457 -0.0287
-0.0442 0.5318 -0.1211
0.0851 -0.5806 -0.0139
0.0686 -0.6009 0.0345
-0.0802 0.7157 -0.1290
-0.0396 0.6745 -0.1600
-0.0386 0.6738 -0.1538
-0.0450 0.3286 -0.0368
-0.0630 0.6781 -0.1620
-0.0744 0.7206 -0.1000
0.0133 -0.0977 -0.0831
0.0033 0.1360 -0.0930
-0.0398 0.4082 -0.0493
0.0759 -0.5884 0.0548
-0.0218 0.4269 -0.1055
0.0830 -0.5678 -0.0054
0.0197 -0.2165 -0.0691
-0.0573 0.5713 -0.0752
0.0768 -0.6920 0.0683
0.0662 -0.5412 -0.0430
-0.0151 0.1918 -0.0924
-0.0009 0.0244 -0.0332
-0.0377 0.2909 -0.0679
-0.0394 0.5825 -0.1126
0.0163 -0.2306 -0.0605
-0.0389 0.4753 -0.0757
-0.0478 0.5826 -0.0858
0.0174 -0.0983 -0.0862
0.0262 -0.3174 -0.0535
0.0559 -0.4596 0.0110
0.0453 -0.4568 -0.0400
0.0308 -0.3645 -0.0185
0.0676 -0.5753 -0.0321
-0.0455 0.5598 -0.0811
0.0664 -0.6443 0.0409
-0.0047 0.0106 -0.0779
-0.0340 0.2664 -0.0266
-0.0244 0.3342 -0.1029
-0.0157 0.0202 -0.0541
0.0639 -0.5955 -0.0067
-0.0384 0.5751 -0.1428
-0.0226 0.4039 -0.0953
-0.0635 0.6927 -0.1611
-0.0437 0.6830 -0.1662
-0.0103 0.1241 -0.0411
0.0860 -0.5861 0.0302
0.1300 -0.6899 -0.0178
-0.0143 0.1968 -0.0525
0.0711 -0.5949 -0.0275
0.0793 -0.6927 0.0019
0.0542 -0.5377 -0.0152
0.0743 -0.5250 -0.0359
0.0942 -0.6421 0.0571
-0.0189 0.2910 -0.0687
0.0968 -0.6626 0.0770
-0.0028 0.0049 -0.0192
0.0562 -0.4439 -0.0568
0.0770 -0.6115 -0.0234
-0.0466 0.6222 -0.1492
-0.0298 0.2201 -0.0254
0.0783 -0.7154 0.0628
-0.0128 0.2843 -0.0861
0.0622 -0.5830 -0.0150
0.0413 -0.4436 -0.0276
-0.0014 0.1967 -0.0946
-0.0313 0.4735 -0.1200
0.0681 -0.6869 0.0636
-0.0543 0.4561 -0.0443
0.0193 -0.2910 -0.0392
-0.0462 0.6415 -0.1549
-0.0211 0.0916 -0.0587
-0.0157 0.1321 -0.0294
0.0429 -0.3453 -0.0087
-0.0815 0.7083 -0.1341
0.0239 -0.0873 -0.0740
-0.0755 0.6778 -0.0679
0.0534 -0.5204 -0.0265
0.0271 -0.1825 -0.0337
-0.0053 -0.0887 -0.0417
-0.0202 0.3948 -0.1155
0.0805 -0.6688 -0.0112
0.0781 -0.5474 0.0032
-0.0479 0.6737 -0.1662
0.0896 -0.6077 0.0526
-0.0765 0.7233 -0.1071
0.0710 -0.6427 0.0624
0.1082 -0.7063 0.0607
0.0800 -0.6772 0.0733
0.1172 -0.7400 -0.0008
-0.0266 0.4733 -0.1079
-0.0574 0.5374 -0.0916
-0.0425 0.3736 -0.0797
0.0392 -0.2346 -0.0648
-0.0209 0.0750 -0.0527
-0.0101 0.1226 -0.0879
0.0726 -0.6114 0.0488
-0.0199 0.0496 -0.0430
0.0765 -0.6432 0.0691
-0.0264 0.1600 -0.0203
-0.0406 0.5428 -0.0931
0.0630 -0.4555 -0.0484
0.0639 -0.5681 -0.0297
0.1354 -0.7095 0.0308
0.0646 -0.4931 0.0093
0.0402 -0.4210 -0.0005
0.0509 -0.3971 -0.0635
-0.0544 0.4997 -0.0472
-0.0367 0.6438 -0.1459
-0.0133 -0.0139 -0.0469
0.0592 -0.5698 -0.0078
-0.0177 0.3282 -0.0848
-0.0125 0.3207 -0.1081
0.0196 -0.0424 -0.0735
-0.0129 0.3339 -0.1031
-0.0236 0.1030 -0.0168
-0.0505 0.6895 -0.1630
0.0152 -0.2485 -0.0504
0.0030 0.1217 -0.0805
-0.0431 0.5081 -0.0737
-0.0001 -0.1377 -0.0455
0.0448 -0.4240 -0.0521
0.0454 -0.4246 0.0077
-0.0197 0.2518 -0.0962
-0.0405 0.2600 -0.0299
0.0972 -0.6431 0.0478
0.0686 -0.6994 0.0261
0.0172 -0.0146 -0.0862
0.0077 -0.0307 -0.0863
-0.0560 0.5501 -0.0646
-0.0330 0.1891 -0.0459
-0.0282 0.1597 -0.0593
-0.0573 0.5768 -0.0758
0.0574 -0.4288 -0.0569
-0.0118 0.0976 -0.0816
0.0719 -0.5399 -0.0433
-0.0534 0.4570 -0.0422
-0.0456 0.5301 -0.0715
-0.0153 0.3630 -0.1083
-0.0363 0.5719 -0.1400
-0.0225 0.4500 -0.1131
-0.0073 0.2636 -0.0963
-0.0434 0.5817 -0.1406
-0.0715 0.6462 -0.0537
-0.0433 0.5237 -0.0786
0.0334 -0.2639 -0.0163
-0.0260 0.2257 -0.0823
0.0306 -0.3633 -0.0409
-0.0759 0.6917 -0.0697
0.0884 -0.6226 0.0465
0.0443 -0.2816 -0.0644
-0.0092 0.1559 -0.0562
0.0680 -0.6420 0.0127
0.0204 -0.2779 -0.0173
-0.0394 0.4201 -0.0542
-0.0486 0.3738 -0.0391
0.0077 0.0773 -0.0926
-0.0237 0.4092 -0.1146
0.0069 -0.1749 -0.0227
-0.0245 0.0959 -0.0219
0.0704 -0.5170 0.0037
0.0670 -0.5305 -0.0467
-0.0408 0.6793 -0.1626
0.0094 -0.0761 -0.0208
0.0786 -0.6079 -0.0229
-0.0564 0.4711 -0.0420
-0.0127 0.2439 -0.0723
-0.0278 0.1956 -0.0719
0.0298 -0.1456 -0.0737
0.0266 -0.2738 -0.0668
-0.0563 0.4993 -0.0510
0.0206 -0.0480 -0.0808
-0.0344 0.5765 -0.1387
-0.0338 0.6138 -0.1485
-0.0357 0.5054 -0.0967
0.0610 -0.5647 -0.0244
0.0698 -0.7100 0.0582
-0.0313 0.2062 -0.0209
-0.0413 0.6800 -0.1407
-0.0341 0.5267 -0.1084
-0.0477 0.4922 -0.0536
-0.0546 0.5304 -0.0573
-0.0520 0.5105 -0.0531
0.0366 -0.3980 -0.0089
-0.0386 0.6597 -0.1642
-0.0178 0.3818 -0.1035
-0.0295 0.1620 -0.0186
0.0349 -0.3969 -0.0295
0.0438 -0.4292 -0.0487
0.0477 -0.3140 -0.0570
0.0286 -0.2760 -0.0688
-0.0286 0.4380 -0.1171
-0.0221 0.2067 -0.0370
-0.0457 0.3862 -0.0664
-0.0022 0.0614 -0.0436
0.0783 -0.6447 -0.0157
-0.0530 0.6792 -0.1660
0.0091 -0.1591 -0.0661
0.0387 -0.4173 -0.0387
0.0016 0.1515 -0.0958
-0.0419 0.6988 -0.1481
-0.0244 0.4716 -0.1185
-0.0106 0.0126 -0.0153
-0.0306 0.5442 -0.1252
0.0973 -0.6787 0.0725
0.0254 -0.3187 -0.0199
-0.0396 0.2622 -0.0400
0.0615 -0.5688 0.0129
0.0385 -0.3071 -0.0734
-0.0320 0.5093 -0.1267
-0.0406 0.4023 -0.0455
-0.0271 0.2891 -0.0472
-0.0905 0.7104 -0.1178
0.1267 -0.7196 0.0229
0.0851 -0.6842 0.0772
-0.0246 0.4561 -0.1225
-0.0788 0.6624 -0.0979
0.0013 0.0454 -0.0897
-0.0581 0.5254 -0.0647
0.0384 -0.2815 -0.0244
0.0528 -0.4321 -0.0588
-0.0776 0.7041 -0.1430
-0.0211 0.0579 -0.0285
0.0408 -0.3212 -0.0140
-0.0203 0.4280 -0.1164
-0.0029 0.1782 -0.1002
-0.0260 0.4013 -0.1110
-0.0318 0.5413 -0.1191
0.0898 -0.6383 0.0497
0.0662 -0.6729 0.0423
-0.0354 0.5928 -0.1277
0.0416 -0.2599 -0.0584
-0.0148 0.1046 -0.0230
-0.0893 0.7227 -0.1073
-0.0426 0.6659 -0.1655
-0.0184 0.4009 -0.1100
-0.0423 0.4488 -0.0551
-0.0019 -0.0855 -0.0625
-0.0182 0.0805 -0.0162
0.0823 -0.5741 0.0258
-0.0552 0.5156 -0.0832
0.0931 -0.6137 0.0080
-0.0067 0.0457 -0.0238
-0.0370 0.2834 -0.0278
0.1093 -0.6673 0.0565
-0.0308 0.5474 -0.1292
0.0816 -0.6536 -0.0156
0.0805 -0.6682 -0.0111
0.0722 -0.6667 0.0640
0.0789 -0.6439 0.0757
0.0425 -0.3760 -0.0008
-0.0342 0.3906 -0.0607
-0.0208 0.1695 -0.0289
-0.0169 0.3564 -0.0967
-0.0360 0.4162 -0.1040
0.0299 -0.3419 -0.0514
0.0436 -0.2983 -0.0698
0.0098 0.0628 -0.0805
0.0257 -0.3358 -0.0297
-0.0183 0.3943 -0.1143
0.0689 -0.6240 0.0388
0.0571 -0.4618 0.0097
0.0525 -0.3605 -0.0456
-0.0560 0.6535 -0.1575
0.0710 -0.6240 -0.0123
-0.0223 0.4505 -0.1215
0.0351 -0.2800 -0.0744
-0.0160 0.0517 -0.0652
0.1019 -0.6700 0.0644
0.0367 -0.3884 -0.0499
-0.0449 0.4888 -0.0582
0.0160 -0.2125 -0.0057
-0.0277 0.5080 -0.1216
-0.0393 0.3546 -0.0354
0.0152 -0.1701 -0.0069
0.0659 -0.5098 0.0172
-0.0453 0.5390 -0.0740
-0.0018 -0.0703 -0.0061
-0.0286 0.2352 -0.0305
-0.0050 0.1172 -0.0922
0.0554 -0.4389 0.0048
0.0259 -0.1089 -0.0782
0.1147 -0.7310 0.0343
-0.0420 0.2862 -0.0343
-0.0232 0.3778 -0.0844
0.0133 -0.2323 -0.0239
0.0806 -0.5883 -0.0265
-0.0648 0.6255 -0.1226
0.0701 -0.5856 0.0435
0.0764 -0.6057 -0.0263
0.0527 -0.4105 -0.0051
0.1233 -0.7353 0.0159
-0.0736 0.6528 -0.0853
0.0231 -0.1326 -0.0483
0.0707 -0.6099 -0.0193
-0.0280 0.1239 -0.0206
0.1077 -0.7172 0.0576
0.0038 -0.0374 -0.0810
-0.0398 0.3814 -0.0423
-0.0239 0.2444 -0.0893
-0.0154 0.3043 -0.1069
-0.0343 0.5968 -0.1349
0.0643 -0.4502 -0.0391
-0.0022 0.1186 -0.0947
0.0847 -0.6817 0.0774
0.0448 -0.3035 -0.0423
-0.0015 0.1032 -0.0622
-0.0367 0.3209 -0.0807
0.0502 -0.4986 -0.0024
0.0619 -0.5278 0.0222
-0.0675 0.6938 -0.1532
-0.0333 0.2160 -0.0572
-0.0120 -0.0039 -0.0156
0.0770 -0.6762 0.0001
0.1140 -0.7224 0.0418
-0.0127 0.3331 -0.1081
0.0429 -0.4479 -0.0055
0.0365 -0.2569 -0.0769
0.0460 -0.3411 -0.0262
-0.0488 0.6843 -0.1175
-0.0472 0.3630 -0.0431
0.0157 -0.0847 -0.0425
-0.0389 0.5234 -0.1243
0.0610 -0.4672 0.0003
0.0396 -0.2444 -0.0712
-0.0401 0.6302 -0.1271
0.0634 -0.5536 0.0225
-0.0298 0.4281 -0.0828
0.0183 -0.2763 -0.0294
0.0205 -0.1705 -0.0798
-0.0089 -0.0326 -0.0596
0.0798 -0.5977 -0.0243
0.0703 -0.6764 0.0127
0.0476 -0.4845 -0.0283
0.0555 -0.5381 -0.0258
0.0271 -0.1386 -0.0823
-0.0207 0.3319 -0.1073
-0.0272 0.1202 -0.0196
-0.0840 0.7037 -0.1044
-0.0427 0.6378 -0.1560
-0.0606 0.6995 -0.1548
-0.0109 -0.0283 -0.0248
0.0253 -0.1237 -0.0842
0.1034 -0.6966 -0.0246
-0.0525 0.5284 -0.1057
-0.0180 0.1761 -0.0859
0.0666 -0.6295 0.0230
0.0764 -0.5287 -0.0229
0.0468 -0.3389 -0.0684
-0.0537 0.4742 -0.0667
0.0582 -0.4398 -0.0118
-0.0612 0.6327 -0.1308
-0.0166 0.2615 -0.1001
-0.0586 0.5721 -0.0783
0.0450 -0.3931 -0.0616
-0.0519 0.4259 -0.0446
0.1104 -0.7229 0.0501
-0.0314 0.1609 -0.0256
0.0768 -0.5475 -0.0355
0.0089 0.0344 -0.0695
-0.0791 0.7201 -0.1052
0.0307 -0.1642 -0.0773
-0.0558 0.4987 -0.0659
-0.0502 0.4024 -0.0397
0.0545 -0.3768 -0.0531
-0.0477 0.3762 -0.0491
-0.0526 0.6504 -0.1584
0.0914 -0.6081 0.0256
-0.0154 0.0854 -0.0183
0.0176 -0.0637 -0.0619
0.0701 -0.4951 -0.0358
-0.0526 0.5005 -0.0924
0.0190 -0.1782 -0.0767
0.0204 -0.1367 -0.0310
-0.0538 0.5816 -0.1295
-0.0585 0.5552 -0.0801
-0.0070 -0.0106 -0.0698
0.0581 -0.5060 -0.0440
-0.0375 0.6287 -0.1538
-0.0600 0.5645 -0.0927
-0.0353 0.3451 -0.0901
-0.0432 0.6151 -0.1507
-0.0467 0.4253 -0.0808
0.0979 -0.6416 0.0066
0.0709 -0.5225 -0.0440
-0.0469 0.5834 -0.0875
-0.0597 0.6023 -0.1267
-0.0584 0.5637 -0.1055
0.0153 -0.2296 -0.0135
0.0125 0.0372 -0.0870
0.0292 -0.1834 -0.0819
0.0028 -0.0168 -0.0255
0.0104 -0.1219 -0.0754
-0.0467 0.5610 -0.0798
0.0375 -0.3323 -0.0677
0.0750 -0.5485 0.0202
0.0172 -0.0040 -0.0817
0.0706 -0.6851 0.0621
-0.0468 0.5682 -0.0826
-0.0261 0.3434 -0.0657
-0.0331 0.1788 -0.0216
-0.0444 0.6721 -0.1264
0.0539 -0.3977 -0.0279
-0.0085 0.2552 -0.1044
-0.0663 0.6968 -0.1538
0.0218 -0.1071 -0.0859
0.0100 0.0496 -0.0771
-0.0365 0.6413 -0.1421
0.0094 0.0804 -0.0870
0.0159 -0.0357 -0.0898
0.0215 -0.2675 -0.0081
-0.0347 0.2011 -0.0332
-0.0061 -0.0746 -0.0297
0.0647 -0.5548 -0.0373
0.0514 -0.4980 -0.0366
0.0659 -0.6629 0.0137
0.0251 -0.1179 -0.0658
0.0674 -0.5098 -0.0489
0.0724 -0.6478 -0.0049
-0.0005 -0.1203 -0.0348
-0.0072 0.1950 -0.0744
0.0676 -0.4942 -0.0459
-0.0495 0.5091 -0.0563
0.0907 -0.6805 -0.0145
-0.0417 0.3409 -0.0669
-0.0805 0.6638 -0.1196
0.0607 -0.4616 -0.0539
0.0288 -0.2466 -0.0754
-0.0385 0.2746 -0.0253
-0.0371 0.2610 -0.0553
-0.0400 0.2750 -0.0269
-0.0448 0.3335 -0.0321
-0.0107 0.1892 -0.0960
0.0757 -0.5304 -0.0077
0.0583 -0.5626 -0.0014
0.0400 -0.2664 -0.0747
-0.0274 0.2459 -0.0353
-0.0518 0.5884 -0.1336
0.0748 -0.6644 0.0721
-0.0392 0.4605 -0.1088
0.0921 -0.6804 -0.0216
-0.0086 0.0449 -0.0779
0.0767 -0.6027 -0.0270
-0.0422 0.4066 -0.0925
-0.0353 0.5169 -0.1253
0.0363 -0.2460 -0.0365
0.0077 -0.1969 -0.0476
-0.0323 0.2434 -0.0714
0.0332 -0.3110 -0.0030
-0.0491 0.6518 -0.1611
0.0769 -0.6556 -0.0112
0.0574 -0.5299 -0.0341
-0.0937 0.7070 -0.1084
0.0344 -0.3716 -0.0030
-0.0378 0.6063 -0.1519
-0.0412 0.6932 -0.1514
0.0493 -0.3330 -0.0631
0.0337 -0.1883 -0.0741
0.0001 -0.1223 -0.0550
-0.0452 0.7047 -0.1428
0.1001 -0.6711 0.0729
-0.0258 0.1063 -0.0386
0.0755 -0.6099 -0.0241
0.0339 -0.2063 -0.0783
-0.0516 0.4801 -0.0830
0.0554 -0.5225 0.0081
-0.0065 -0.0732 -0.0488
-0.0171 0.0486 -0.0166
-0.0041 -0.0713 -0.0170
-0.0368 0.6546 -0.1563
-0.0465 0.7026 -0.1384
0.0896 -0.6370 0.0456
-0.0317 0.5420 -0.1327
-0.0292 0.5263 -0.1278
-0.0435 0.3023 -0.0321
-0.0218 0.1098 -0.0640
0.0268 -0.3181 -0.0097
0.0682 -0.6948 0.0273
0.1201 -0.7010 0.0484
-0.0353 0.5541 -0.1341
0.0097 -0.0684 -0.0280
0.0663 -0.4857 -0.0097
-0.0224 0.1452 -0.0728
