0.0749291 -0.653378 0.0022401
0.0785864 -0.651824 0.020801
0.0752949 -0.661516 0.0141264
0.0915699 -0.622383 0.0338758
0.0917528 -0.63372 0.0329615
0.088004 -0.637469 0.0304014
0.0633172 -0.655573 0.0532596
0.0804151 -0.65283 0.052711
0.0777636 -0.658682 0.0508823
0.0759349 -0.669653 0.0260126
0.0788607 -0.660144 0.0325043
0.0784036 -0.678888 0.0362531
0.0635915 -0.671299 0.0599342
0.0637743 -0.676602 0.0612142
0.0614885 -0.693517 0.06222
0.0739234 -0.674134 0.0579226
0.0780379 -0.671391 0.0540825
0.0781293 -0.676877 0.0559111
0.0731919 -0.694157 0.0616714
0.0784036 -0.692329 0.0591113
0.0918442 -0.639755 0.0337844
0.0921185 -0.651367 0.038356
0.0923014 -0.665996 0.0431105
-0.0239097 -0.610314 -0.0892841
-0.00635458 -0.601353 -0.0997988
-0.00699461 -0.62156 -0.0965987
-0.0325043 -0.618451 -0.0773064
-0.0342416 -0.62668 -0.0655116
-0.0238182 -0.630612 -0.0860839
-0.0334187 -0.638475 -0.0735576
-0.0323215 -0.634726 -0.0535339
-0.0296699 -0.642864 -0.0416476
-0.0342416 -0.646704 -0.0617628
-0.0317729 -0.65475 -0.0497851
-0.024184 -0.651733 -0.0838895
-0.0075432 -0.641675 -0.0932157
-0.00873183 -0.661973 -0.0900155
-0.034333 -0.65859 -0.0699003
-0.0339673 -0.666728 -0.0580141
-0.0292128 -0.670385 -0.0779464
-0.022721 -0.666545 -0.083341
-0.0340587 -0.678614 -0.0661516
-0.0225382 -0.676237 -0.0820609
-0.0282984 -0.690317 -0.0741977
-0.0223553 -0.686386 -0.0798665
-0.0221724 -0.695255 -0.0776721
-0.00864039 -0.682088 -0.0864497
-0.00772607 -0.701929 -0.0824266
0.0190637 -0.592576 -0.110679
0.00480022 -0.602085 -0.103913
0.00516595 -0.618725 -0.101353
0.0194295 -0.612691 -0.107296
0.00534882 -0.625766 -0.100256
0.0198866 -0.632715 -0.10373
0.0334187 -0.592484 -0.111411
0.0338758 -0.612599 -0.107936
0.0494194 -0.600805 -0.101993
0.0500594 -0.62092 -0.0985188
0.0342416 -0.632715 -0.104736
0.00553168 -0.638383 -0.0980616
0.00571455 -0.646247 -0.0967816
0.00589741 -0.658133 -0.0948615
0.0202524 -0.652921 -0.100256
0.0346987 -0.652647 -0.100622
0.0502423 -0.640852 -0.0946786
0.0504252 -0.660784 -0.0906556
0.00608028 -0.666728 -0.0933986
0.0206181 -0.672762 -0.0963244
0.00626314 -0.677882 -0.0912956
0.00653744 -0.687026 -0.0898327
0.00672031 -0.697815 -0.0878212
0.0209838 -0.692877 -0.09285
0.00690317 -0.706867 -0.0859925
0.021441 -0.712993 -0.0877297
0.0350645 -0.672579 -0.0963244
0.0354302 -0.692695 -0.09285
0.0517967 -0.680991 -0.0874554
0.0522538 -0.700832 -0.0837981
0.0357959 -0.712718 -0.0872726
-0.0279327 -0.651001 -0.0297614
-0.0267441 -0.659139 -0.0179665
-0.028847 -0.662887 -0.0378989
-0.0259212 -0.671025 -0.0260126
-0.024824 -0.667185 -0.00608028
-0.0223553 -0.674042 0.00406876
-0.0234525 -0.679071 -0.0141264
-0.0224467 -0.683643 -0.00745177
-0.0218981 -0.687117 -0.00233154
-0.0308586 -0.674774 -0.0460364
-0.0268355 -0.68282 -0.0341501
-0.0326872 -0.686751 -0.0541739
-0.0289385 -0.694797 -0.0422876
-0.0232696 -0.690957 -0.0222639
-0.022081 -0.699369 -0.011932
-0.0249154 -0.702935 -0.0304014
-0.0232696 -0.710981 -0.0185151
-0.0197952 -0.703392 0.0215324
-0.00800037 -0.690683 0.0301271
-0.0212581 -0.695346 0.00964616
-0.0156807 -0.71153 0.0333272
-0.00736034 -0.719301 0.0448478
-0.0231782 -0.715461 0.0133949
-0.0219896 -0.709792 0.0171436
-0.0223553 -0.704764 0.00315443
-0.0238182 -0.719119 -0.00672031
-0.0251897 -0.727256 0.00525738
-0.0222639 -0.722044 0.0262869
-0.0256469 -0.735485 0.0170522
-0.0243668 -0.743623 0.0289385
-0.0212581 -0.730456 0.0333272
-0.0318643 -0.698546 -0.0624029
-0.0299442 -0.706684 -0.0505166
-0.0226296 -0.710798 -0.0718204
-0.0271098 -0.71857 -0.0586541
-0.0265612 -0.71473 -0.0385389
-0.024824 -0.722959 -0.0266526
-0.0259212 -0.726707 -0.0467679
-0.0252812 -0.734754 -0.0347902
-0.0216238 -0.725976 -0.0637743
-0.00525738 -0.72177 -0.077855
-0.0164122 -0.730182 -0.0667916
-0.00699461 -0.735485 -0.0704489
-0.0206181 -0.738594 -0.0538082
-0.0218981 -0.747737 -0.043842
-0.00598885 -0.750023 -0.0624943
-0.013212 -0.758343 -0.0510652
-0.0251897 -0.731005 -0.0148578
-0.0263783 -0.739234 -0.00297156
-0.0257383 -0.742891 -0.0229953
-0.0266526 -0.75112 -0.0111091
-0.0269269 -0.747371 0.00891469
-0.0262869 -0.755417 0.020801
-0.0269269 -0.759258 0.000868611
-0.0265612 -0.767395 0.0126634
-0.0249154 -0.754869 -0.0311329
-0.0260126 -0.762915 -0.0192466
-0.0202524 -0.766572 -0.0384475
-0.0232696 -0.774801 -0.0273841
-0.0262869 -0.771052 -0.00736034
-0.0259212 -0.77919 0.00461735
-0.0245497 -0.78303 -0.0154979
-0.0244583 -0.791168 -0.00361159
0.0212581 -0.719027 0.0510652
0.0208924 -0.698638 0.0440249
0.0367102 -0.706867 0.0528024
0.0496937 -0.699003 0.0585627
0.00708604 -0.718661 -0.0828838
0.00717747 -0.725062 -0.0809637
0.00708604 -0.741794 -0.0752034
0.0217153 -0.727622 -0.0828838
0.0218067 -0.737679 -0.0801408
0.0359788 -0.726799 -0.0825181
0.0362531 -0.737771 -0.0796836
0.0512481 -0.720856 -0.0790436
0.0502423 -0.740971 -0.0738319
-0.00653744 -0.762641 -0.0542653
-0.0206181 -0.779281 -0.0304928
-0.00562311 -0.778184 -0.0470421
-0.0145835 -0.786505 -0.0355216
-0.00598885 -0.792996 -0.0400933
-0.0199781 -0.794825 -0.0230868
-0.020801 -0.804517 -0.0129377
-0.00662887 -0.807351 -0.0340587
-0.0160464 -0.814666 -0.0197952
-0.00571455 -0.826918 -0.0290299
0.0219896 -0.745908 -0.0780379
0.0078175 -0.75752 -0.068346
0.00598885 -0.769681 -0.0606656
0.0188809 -0.761452 -0.0721862
0.022721 -0.78175 -0.0643229
0.036436 -0.74536 -0.0777636
0.0395447 -0.761086 -0.0721862
0.037076 -0.781201 -0.0650544
0.0509738 -0.755692 -0.0675231
0.0523452 -0.768858 -0.060117
0.0112919 -0.788059 -0.0542653
0.00123434 -0.798116 -0.0436591
0.00854896 -0.793453 -0.0501509
0.00864039 -0.802505 -0.0466764
0.0229039 -0.793179 -0.0579226
0.0229953 -0.809637 -0.0518881
0.00772607 -0.819055 -0.0418305
0.00790893 -0.837341 -0.037076
0.0251897 -0.829478 -0.0475907
0.0511566 -0.789065 -0.0547225
0.0373503 -0.794276 -0.0589284
0.0376246 -0.809546 -0.0542653
0.0515224 -0.80918 -0.0509738
0.0379903 -0.829478 -0.0494194
0.0508823 -0.829478 -0.0462193
0.0239097 -0.845936 -0.0417391
0.038356 -0.849227 -0.0421962
0.052711 -0.842919 -0.0400933
0.0624029 -0.601536 -0.0842553
0.0610314 -0.610314 -0.0865411
0.0623114 -0.628874 -0.0827009
0.066243 -0.616531 -0.0771235
0.0703575 -0.624577 -0.0652373
0.0672488 -0.636555 -0.0734662
0.0708147 -0.632715 -0.0534424
0.0698089 -0.640944 -0.0415562
0.0713633 -0.644692 -0.06158
0.0726433 -0.652738 -0.0496937
0.0624943 -0.64899 -0.0784036
0.0631343 -0.668648 -0.0758435
0.0675231 -0.65667 -0.0697175
0.072369 -0.664716 -0.0578312
0.0690774 -0.676602 -0.0659687
0.0639572 -0.68858 -0.0737405
0.0694432 -0.649081 -0.0296699
0.0703575 -0.657219 -0.0177837
0.0718204 -0.660876 -0.0378074
0.0700832 -0.669105 -0.0259212
0.0712718 -0.665265 -0.00589741
0.0718204 -0.673494 0.00589741
0.068986 -0.677242 -0.0140349
0.0691689 -0.68538 -0.0022401
0.0739234 -0.672854 -0.045945
0.0720947 -0.6809 -0.0340587
0.0730091 -0.684648 -0.0540825
0.0731005 -0.692786 -0.0421962
0.0688946 -0.689129 -0.0221724
0.0675231 -0.697358 -0.0103776
0.0709061 -0.701015 -0.0304014
0.0691689 -0.709152 -0.0184237
0.0732833 -0.68154 0.0178751
0.0766664 -0.689677 0.0297614
0.0709061 -0.693517 0.00964616
0.0745634 -0.701563 0.0216238
0.0785864 -0.6969 0.0596599
0.0787693 -0.707324 0.0300357
0.0688946 -0.705404 0.00150864
0.0729176 -0.71345 0.0133949
0.0699003 -0.71729 -0.00653744
0.0738319 -0.725427 0.00525738
0.0790436 -0.720399 0.0237268
0.0808723 -0.732193 0.0154979
0.0937643 -0.737222 0.0232696
0.0642315 -0.708878 -0.0690774
0.0694432 -0.696626 -0.06222
0.0718204 -0.704672 -0.0503337
0.0688946 -0.716741 -0.0584712
0.0728262 -0.71281 -0.0385389
0.0741977 -0.720947 -0.0266526
0.0727348 -0.724696 -0.046585
0.0768492 -0.732833 -0.0346987
0.0643229 -0.729085 -0.0644144
0.0651458 -0.741977 -0.0583798
0.0589284 -0.748743 -0.0629514
0.0652373 -0.757063 -0.0503337
0.068986 -0.736674 -0.0547225
0.0735576 -0.74472 -0.0428362
0.0768492 -0.729085 -0.014675
0.0796836 -0.735028 -0.00269727
0.0793179 -0.734022 -0.0181494
0.0794093 -0.737131 -0.028207
0.0793179 -0.75368 -0.0279327
0.0701746 -0.764835 -0.0391789
0.0808723 -0.762549 -0.0202524
0.075112 -0.772881 -0.0272927
0.0801408 -0.781019 -0.0149493
0.0815123 -0.740788 -0.0228125
0.0851696 -0.748926 -0.0110176
0.0891012 -0.745085 0.00909756
0.0939472 -0.747737 0.0130292
0.0897412 -0.756972 0.000868611
0.0942214 -0.761543 0.00763463
0.098976 -0.764926 0.0127549
0.085261 -0.768858 -0.0072689
0.0944043 -0.769407 0.00982902
0.0891012 -0.776996 0.00461735
0.0841638 -0.788973 -0.00352016
0.0656944 -0.771327 -0.0434763
0.0614885 -0.776904 -0.0473164
0.0658773 -0.78111 -0.0410076
0.0660602 -0.791716 -0.0400018
0.0645972 -0.798208 -0.0415562
0.0693517 -0.784859 -0.0354302
0.0755692 -0.792905 -0.0235439
0.080598 -0.801042 -0.011932
0.0712718 -0.804791 -0.0316814
0.0768492 -0.812929 -0.0197952
0.0658773 -0.817317 -0.0374417
0.0667916 -0.830484 -0.0316814
0.0606656 -0.836975 -0.0360702
0.0708147 -0.824906 -0.0279327
-0.0156807 -0.759715 0.052711
-0.00681174 -0.75048 0.0589284
-0.0212581 -0.752126 0.0414648
-0.00562311 -0.768675 0.0627686
-0.0243668 -0.763555 0.0326872
-0.0208924 -0.771052 0.0450306
-0.0252812 -0.775441 0.0245497
-0.0231782 -0.783579 0.036436
-0.0117491 -0.799671 0.0602085
-0.00608028 -0.792448 0.0651458
-0.00626314 -0.784859 0.0643229
-0.0202524 -0.793088 0.0462193
-0.0250069 -0.787327 0.0164122
-0.0239097 -0.795556 0.0282984
-0.0240011 -0.799305 0.00827466
-0.0237268 -0.807351 0.0201609
-0.0219896 -0.803602 0.0401847
-0.0200695 -0.808266 0.0469507
-0.0231782 -0.815489 0.0320472
-0.0212581 -0.823626 0.043842
-0.0198866 -0.8175 0.0481393
-0.0182408 -0.81174 0.0519795
-0.00580598 -0.803785 0.0663345
-0.0108348 -0.839718 0.0676145
-0.00525738 -0.832952 0.0722776
-0.00544025 -0.823443 0.0697175
-0.0175094 -0.831672 0.0557283
-0.00562311 -0.814117 0.067706
-0.0197952 -0.827558 0.0496937
-0.00470879 -0.848222 0.0783122
0.0218981 -0.747097 0.0614885
0.00790893 -0.770321 0.0688946
0.022081 -0.761726 0.0682545
0.0234525 -0.775624 0.075112
0.0503337 -0.729725 0.0620371
0.0362531 -0.746731 0.0627686
0.050608 -0.741337 0.0645058
0.0365274 -0.760263 0.0691689
0.0368017 -0.772241 0.0784036
0.0507909 -0.754503 0.0691689
0.0511566 -0.769315 0.0802322
0.0498766 -0.792905 0.104553
-0.00105148 -0.787602 0.068346
0.00818323 -0.782024 0.0720033
0.00937186 -0.816494 0.0819695
0.0229953 -0.803785 0.0918442
0.000868611 -0.807534 0.0720947
0.0251897 -0.831764 0.105742
-0.000320015 -0.827649 0.0758435
0.00443449 -0.855628 0.0914785
0.0518881 -0.812746 0.120371
0.0215324 -0.868611 0.117263
0.0407333 -0.84749 0.131617
0.0523452 -0.836701 0.138841
0.0526195 -0.854165 0.141766
0.0532596 -0.883972 0.134086
0.0243668 -0.88004 0.125217
-0.0221724 -0.8111 0.000137149
-0.0229039 -0.819237 0.0120234
-0.0196123 -0.822895 -0.00772607
-0.0213495 -0.831124 0.00379446
-0.0231782 -0.827375 0.0239097
-0.0225382 -0.835512 0.0357959
-0.0222639 -0.839261 0.0157721
-0.0225382 -0.847399 0.0276584
-0.0191552 -0.843376 -0.0022401
-0.0144921 -0.83469 -0.0161379
-0.00452592 -0.846393 -0.0240011
-0.0116577 -0.854622 -0.0124806
-0.0197038 -0.852976 0.00635458
-0.0215324 -0.859194 0.0195209
-0.0189723 -0.871263 0.0110176
-0.0161379 -0.862942 -0.00050288
-0.0207095 -0.84365 0.0475907
-0.0196123 -0.838073 0.0514309
-0.019338 -0.847673 0.0535339
-0.0222639 -0.855445 0.0395447
-0.0208924 -0.863674 0.0513395
-0.0184237 -0.854256 0.0578312
-0.0129377 -0.879766 0.0752034
-0.00461735 -0.86532 0.0849867
-0.0186066 -0.872634 0.0613057
-0.0226296 -0.867423 0.0314071
-0.0229953 -0.87556 0.043202
-0.0217153 -0.879217 0.0232696
-0.0235439 -0.887446 0.0350645
-0.0216238 -0.883789 0.0551797
-0.0183323 -0.891835 0.0665173
-0.0238182 -0.895584 0.0469507
-0.0219896 -0.903721 0.0589284
-0.00470879 -0.860931 -0.0167779
-0.00489165 -0.875011 -0.0100119
-0.0130292 -0.882875 0.00324586
-0.00324586 -0.895584 -0.00205724
-0.0181494 -0.891012 0.0158636
-0.0212581 -0.899241 0.0270184
-0.0182408 -0.905276 0.0229039
-0.00580598 -0.904636 0.00571455
-0.0142178 -0.911036 0.0187894
-0.0233611 -0.90747 0.0388132
-0.0238182 -0.915608 0.0507909
-0.0182408 -0.920179 0.0287556
-0.0229039 -0.927494 0.0425619
-0.0033373 -0.922739 0.0108348
-0.018698 -0.937917 0.0325043
-0.0123891 -0.930968 0.0225382
0.0120234 -0.858005 -0.03095
0.00242297 -0.866325 -0.0205267
0.0100119 -0.870988 -0.0238182
0.0240011 -0.853433 -0.0386303
0.024184 -0.861937 -0.0352473
0.0231782 -0.87748 -0.0305843
0.00955472 -0.886806 -0.0181494
0.0109262 -0.906373 -0.0122063
0.0237268 -0.898601 -0.0264698
0.0387218 -0.864039 -0.0368931
0.0388132 -0.873 -0.0351559
0.0544482 -0.857273 -0.0333272
0.0546311 -0.877297 -0.0293956
0.0390875 -0.884246 -0.0332358
0.0391789 -0.892932 -0.0314986
0.0394532 -0.90299 -0.0286642
0.0543568 -0.89723 -0.0252812
0.00452592 -0.914419 -0.00114291
-0.00525738 -0.889275 0.0891926
-0.0182408 -0.912133 0.0720947
-0.0129377 -0.89979 0.0789522
-0.00699461 -0.907927 0.0908384
-0.00388589 -0.90235 0.0945872
-0.0144921 -0.919905 0.0826095
-0.00315443 -0.915699 0.101353
-0.0101948 -0.927951 0.0944957
-0.00736034 -0.936088 0.106382
-0.0022401 -0.926488 0.112874
-0.00772607 -0.944226 0.118268
-0.00297156 -0.933346 0.125583
-0.00909756 -0.952364 0.130155
-0.0033373 -0.938466 0.135732
-0.00379446 -0.960958 0.142955
-0.0225382 -0.923745 0.0626772
-0.0202524 -0.931883 0.074472
-0.0178751 -0.926397 0.0782207
-0.0242754 -0.935631 0.0545396
-0.0242754 -0.94386 0.0663345
-0.0176008 -0.940112 0.086724
-0.0238182 -0.951998 0.0782207
-0.0234525 -0.960135 0.090107
-0.0164122 -0.949712 0.0971473
-0.0242754 -0.947609 0.0463107
-0.0270184 -0.955747 0.0581969
-0.0244583 -0.968273 0.101993
-0.0162293 -0.957849 0.109034
-0.0271098 -0.976502 0.113879
-0.0168693 -0.964707 0.121743
-0.0158636 -0.973759 0.13308
-0.0025144 -0.977965 0.142224
-0.00233154 -0.986377 0.141675
0.00964616 -0.884795 0.110039
0.000137149 -0.895767 0.098976
0.00470879 -0.903904 0.110862
0.0112005 -0.893481 0.117903
0.00534882 -0.91195 0.122748
0.010469 -0.90491 0.127503
0.0171436 -0.899881 0.130886
0.0246411 -0.896407 0.133172
0.0390875 -0.89851 0.133263
0.0516138 -0.899698 0.130612
0.00937186 -0.928225 0.14643
0.0285727 -0.927768 0.147435
0.0250069 -0.91195 0.139938
0.00452592 -0.920179 0.134543
0.024824 -0.902898 0.135549
0.0257383 -0.94706 0.152647
0.0116577 -0.964981 0.149173
0.0260126 -0.966261 0.15155
0.0394532 -0.914785 0.137743
0.0396361 -0.924111 0.141309
0.0528024 -0.919996 0.133446
0.039819 -0.931243 0.144052
0.0543568 -0.938923 0.140669
0.0401847 -0.9477 0.15027
0.040459 -0.966993 0.153013
0.0545396 -0.952546 0.146704
0.0549054 -0.967907 0.151824
0.0108348 -0.979519 0.146247
0.0261955 -0.97257 0.150818
0.0651458 -0.734479 0.0686203
0.0795922 -0.799397 0.0417391
0.0782207 -0.813569 0.0321386
0.0805065 -0.797568 0.0346073
0.0807808 -0.809271 0.0259212
0.0811466 -0.809911 0.0516138
0.0782207 -0.821615 0.0440249
0.0945872 -0.780653 0.0196123
0.090747 -0.785133 0.016595
0.0946786 -0.783396 0.0351559
0.0842553 -0.793362 0.0283899
0.0860839 -0.797111 0.00845753
0.0831581 -0.805248 0.0202524
0.086724 -0.797751 0.0602999
0.0675231 -0.806894 0.12412
0.0811466 -0.830118 0.0553625
0.0906556 -0.805797 0.0721862
0.0858096 -0.817775 0.0640486
0.0916613 -0.825821 0.0759349
0.0875469 -0.837798 0.0677974
0.0955015 -0.828564 0.0800494
0.0957758 -0.842736 0.0752949
0.110131 -0.844656 0.0784036
0.0809637 -0.821066 -0.0075432
0.0809637 -0.820609 0.0272927
0.0806894 -0.835147 0.0347902
0.0810551 -0.829386 0.0298528
0.0671574 -0.845021 -0.0244583
0.075112 -0.832952 -0.015955
0.081238 -0.835512 -0.000411447
0.0789522 -0.840998 -0.00416019
0.0726433 -0.853068 -0.0122977
0.0816037 -0.849502 0.00434306
0.0782207 -0.861022 -0.000411447
0.0817866 -0.865137 0.00562311
0.0840724 -0.808997 0.000320015
0.0844381 -0.817134 0.0121148
0.0834324 -0.829021 0.00406876
0.0823352 -0.825272 0.0240011
0.0848953 -0.837158 0.0158636
0.0856268 -0.845296 0.0277498
0.0875469 -0.857091 0.0196123
0.0855353 -0.869068 0.0114748
0.081238 -0.84365 0.0471336
0.0859925 -0.849685 0.0596599
0.0869068 -0.853342 0.0396361
0.0923928 -0.861388 0.0515224
0.0960501 -0.855353 0.0681631
0.0961415 -0.864497 0.056094
0.110314 -0.850599 0.0762092
0.108302 -0.857913 0.0722776
0.108851 -0.870165 0.0645972
0.0930328 -0.865137 0.0314986
0.096233 -0.867057 0.0475907
0.0963244 -0.870165 0.0389046
0.0931243 -0.877023 0.0233611
0.0965987 -0.88196 0.0306757
0.0987017 -0.873274 0.0433848
0.0987931 -0.88516 0.0352473
0.109399 -0.882235 0.0568255
0.106199 -0.893115 0.0471336
0.111319 -0.896864 0.0528024
0.0670659 -0.865228 -0.0187894
-0.155573 0.970284 0.087364
-0.138566 0.963793 0.0827009
-0.126589 0.965713 0.0800494
-0.0980616 0.975222 0.0670659
-0.124669 0.945963 0.071089
-0.097513 0.947518 0.0564597
-0.120554 0.915242 0.0519795
-0.0969644 0.921916 0.0429277
-0.123114 0.892109 0.0346987
-0.0965987 0.903356 0.0191552
-0.0964158 0.898235 0.00233154
-0.123846 0.883789 -0.00717747
-0.0963244 0.895858 -0.0209838
-0.123023 0.868977 0.0175094
-0.0960501 0.890372 -0.0380817
-0.121103 0.876657 -0.0445735
-0.0922099 0.879217 -0.0474079
-0.0956844 0.858096 -0.0579226
-0.124669 0.843559 0.0078175
-0.0746548 0.982536 0.0570998
-0.0406419 0.990674 0.0461278
-0.0625857 0.959678 0.0448478
-0.0682545 0.927037 0.0362531
-0.0400018 0.955747 0.0391789
-0.0394532 0.929414 0.0337844
-0.067706 0.902533 0.0210752
-0.0670659 0.886623 -0.00617171
-0.0389046 0.902076 0.022721
-0.0384475 0.878303 0.00635458
0.0170522 0.988845 -0.0256469
0.0170522 0.975039 -0.0312243
0.0171436 0.983176 -0.0457621
0.0169608 0.996068 -0.0367102
0.0171436 0.986834 -0.0230868
-0.0112919 0.962238 0.0375331
-0.0110176 0.947518 0.0351559
-0.0106519 0.931425 0.03159
0.0175094 0.96233 0.0384475
0.0177837 0.948706 0.0356131
0.0181494 0.932431 0.0310414
0.0174179 0.971382 -0.0362531
-0.0101948 0.902533 0.0229039
-0.00955472 0.873366 0.0144921
0.018698 0.90107 0.0257383
0.00352016 0.871446 0.0176922
0.0190637 0.880406 0.0236354
-0.0670659 0.870165 -0.033693
-0.0810551 0.851147 -0.0570998
-0.0667916 0.858736 -0.0423791
-0.0670659 0.846759 -0.0503337
-0.0549054 0.862851 -0.0224467
-0.0378989 0.85133 -0.00534882
-0.0552711 0.850965 -0.0305843
-0.0568255 0.838987 -0.0387218
-0.0381732 0.823992 -0.0122063
-0.0684374 0.83405 -0.0572826
-0.0807808 0.837067 -0.0621286
-0.080598 0.828198 -0.0632257
-0.0805065 0.82006 -0.0627686
-0.0659687 0.814483 -0.0561854
-0.0593856 0.827101 -0.0468593
-0.0509738 0.798025 -0.0323215
-0.0576483 0.807077 -0.0431105
-0.065603 0.795282 -0.0506995
-0.0573741 0.787053 -0.0393618
-0.0658773 0.775075 -0.0461278
-0.0244583 0.849227 0.00352016
-0.0106519 0.861114 0.0113834
0.0163207 0.792813 -0.0711804
0.0211667 0.804242 -0.0651458
0.021441 0.784036 -0.0608485
0.0189723 1 -0.0166865
0.022721 0.991954 -0.00470879
0.0423791 0.976045 0.0190637
0.0208924 0.980068 -0.0129377
0.0208924 0.968181 -0.0210752
0.039819 0.952181 0.0027887
0.0357045 0.935814 0.0265612
0.0314071 0.944592 -0.0373503
0.0284813 0.960775 -0.0610314
0.0430191 0.928591 -0.0135778
0.0432934 0.904727 -0.0297614
0.0387218 0.920911 -0.0535339
0.0471336 0.918076 0.0142178
0.0471336 0.920088 -0.00114291
0.0474993 0.902716 0.0197038
0.0475907 0.89659 -0.0177837
0.0298528 0.884155 0.0263783
0.0447563 0.883606 0.0247326
0.0490537 0.912316 0.0102862
0.0512481 0.900521 0.00205724
0.0518881 0.888635 -0.00598885
0.0513395 0.892384 0.0140349
0.0549968 0.880589 0.00580598
0.0562769 0.872451 0.0176922
0.0347902 0.880863 -0.0460364
0.0496937 0.859559 -0.0281156
0.0469507 0.839536 -0.0363445
0.0346073 0.846942 -0.053351
0.0304014 0.856908 -0.0624029
0.0780379 0.828381 -0.0134863
0.0320472 0.837067 -0.0585627
0.0345159 0.832861 -0.052711
0.0361617 0.826826 -0.0481393
0.0297614 0.81686 -0.0549054
0.0251897 0.824998 -0.0667916
0.0357959 0.807717 -0.0453964
0.0491451 0.821066 -0.0351559
0.0507909 0.801042 -0.0321386
0.0297614 0.796928 -0.0511566
0.0362531 0.787327 -0.0419219
0.0313157 0.776904 -0.0474079
0.0781293 0.812197 -0.0238182
-0.15539 0.961233 0.0857182
-0.154658 0.925482 0.0869983
-0.154201 0.89979 0.0735576
-0.15411 0.896772 0.0718204
-0.143412 0.876017 0.0575569
-0.15347 0.864131 0.0844381
-0.147892 0.859651 0.0813294
-0.124851 0.851696 0.0368931
-0.122748 0.837615 0.0661516
-0.124303 0.845021 0.0524367
-0.153378 0.858188 0.083341
-0.152921 0.832861 0.0692603
-0.124029 0.831672 0.0618543
-0.152647 0.819146 0.0536253
-0.123663 0.814666 0.0455792
-0.152464 0.813843 0.0461278
-0.123846 0.820152 0.0189723
-0.118725 0.829021 0.0250069
-0.13308 0.732285 0.0636829
-0.122017 0.72561 0.0590198
-0.121834 0.720124 0.0308586
-0.100896 0.709152 0.0474993
-0.121468 0.701289 0.077215
-0.121377 0.697449 0.0638658
-0.122017 0.727073 0.0716376
-0.1222 0.734022 0.099616
-0.103365 0.71665 0.0874554
0.067706 -0.885069 -0.0160464
0.019338 0.868063 0.0229953
-0.0367102 0.789522 -0.0169608
-0.0492365 0.757703 -0.0246411
-0.0362531 0.764652 -0.0200695
-0.0363445 0.773612 -0.0192466
-0.0360702 0.757063 -0.0205267
-0.00900613 0.842736 0.00818323
-0.0083661 0.812929 0.000685746
0.0204352 0.851147 0.020801
0.0198866 0.838164 0.0156807
0.0204352 0.812289 0.00260583
0.0202524 0.824998 0.00946329
-0.0221724 0.78559 -0.0108348
0.000685746 0.783853 -0.0072689
-0.0223553 0.772332 -0.0147664
-0.0216238 0.755143 -0.0173265
-0.00745177 0.767578 -0.00955472
-0.0112919 0.751669 -0.0118405
-0.0072689 0.756606 -0.00845753
-0.00708604 0.748286 -0.00690317
0.0218981 0.784402 -0.00717747
0.00397732 0.765384 -0.0025144
-0.00361159 0.743623 4.57164e-05
0.00690317 0.755326 0.00946329
0.0213495 0.767944 -0.00114291
0.0215324 0.758526 0.00992045
0.0025144 0.735576 0.011932
0.00736034 0.743074 0.0170522
0.00763463 0.730913 0.0188809
0.0217153 0.747737 0.0195209
0.0140349 0.727713 0.0238182
0.022081 0.728902 0.0267441
0.0338758 0.863674 0.0294871
0.0482308 0.864862 0.0314986
0.0341501 0.847033 0.0287556
0.0355216 0.832404 0.0245497
0.0419219 0.844016 0.0333272
0.0485965 0.849502 0.037076
0.0489622 0.827101 0.0326872
0.0354302 0.820335 0.0166865
0.0367102 0.808814 0.0080918
0.0494194 0.80406 0.0154064
0.0354302 0.78495 -0.00818323
0.0496937 0.784493 -0.0075432
0.0355216 0.781019 -0.00964616
0.0357045 0.772972 -0.0415562
0.0492365 0.78175 -0.0268355
0.0449392 0.772698 -0.0154979
0.0411905 0.768949 -0.0355216
0.0476822 0.760903 -0.0236354
0.044482 0.744537 4.57164e-05
0.0456707 0.752674 -0.0117491
0.0784036 0.796196 -0.0232696
0.0369845 0.72817 0.0238182
0.0731919 -0.873091 -0.00854896
0.0821523 -0.880955 0.00352016
0.0771235 -0.892932 -0.00480022
0.0684374 -0.905093 -0.0130292
0.0825181 -0.896955 0.00114291
0.0821523 -0.913139 0.000960044
0.0171436 0.772881 -0.0674317
0.0213495 0.768035 -0.0603913
0.0210752 0.754869 -0.0609399
0.0128463 0.760903 -0.0755692
0.0148578 0.74088 -0.0719119
0.00818323 0.750297 -0.0858096
0.011932 0.728902 -0.0800494
0.00745177 0.743531 -0.0874554
0.00690317 0.735851 -0.090107
0.0101033 0.717016 -0.0881869
0.0247326 0.764835 -0.0555454
0.0830667 -0.928225 0.00589741
-0.121194 0.685746 0.03159
0.0906556 -0.888909 0.0152236
0.0967816 -0.896955 0.0274755
0.0870897 -0.900978 0.00708604
-0.0643229 0.734296 -0.0407333
-0.0927585 0.711438 -0.053351
-0.0637743 0.702021 -0.0429277
-0.0598427 0.746914 -0.0319557
-0.0506995 0.739782 -0.0187894
-0.0625857 0.726799 -0.0281156
-0.0506995 0.720307 -0.0148578
-0.0357045 0.739691 -0.0194295
-0.0392704 0.718661 -0.0174179
-0.0609399 0.706867 -0.0243668
-0.0624029 0.69498 -0.0325958
-0.0494194 0.701838 -0.0167779
-0.0566426 0.686934 -0.0207095
-0.0492365 0.693152 -0.016595
-0.0489622 0.678705 -0.0113834
-0.034973 0.702021 -0.0165036
-0.0348816 0.695437 -0.0152236
-0.0340587 0.679162 -0.00891469
-0.0922099 0.68346 -0.0401847
-0.0635 0.686477 -0.038356
-0.0631343 0.668556 -0.0506995
-0.0724605 0.647252 -0.0651458
-0.06286 0.655481 -0.0768492
-0.0479565 0.659504 -0.0555454
-0.0342416 0.662887 -0.072369
-0.0326872 0.64835 -0.0642315
-0.0340587 0.660327 -0.0831581
-0.0918442 0.665539 -0.0175094
-0.0631343 0.670385 -0.0144921
-0.0634086 0.678614 -0.0261955
-0.0625857 0.637926 -0.00242297
-0.091387 0.638018 -0.00150864
-0.0629514 0.656213 -0.0525281
-0.0624943 0.638841 -0.0545396
-0.0334187 0.659047 -0.00516595
-0.0336015 0.631252 -0.00653744
-0.0481393 0.639115 -0.0543568
-0.0213495 0.740605 -0.0176008
-0.0203438 0.718844 -0.0172351
-0.00699461 0.732833 -0.00690317
0.0219896 0.732925 -0.0598427
0.0208924 0.719667 -0.0661516
-0.00498308 0.711255 -0.00580598
-0.0198866 0.699461 -0.0128463
-0.0201609 0.679894 -0.00690317
-0.00598885 0.694797 -0.00525738
-0.00589741 0.68666 -0.00406876
-0.00571455 0.675322 -0.0022401
0.000137149 0.72369 0.00379446
0.0080918 0.713998 0.0143092
0.0072689 0.703026 0.00854896
0.0223553 0.709975 0.0244583
0.0221724 0.696443 0.0209838
0.000137149 0.69178 -0.000685746
0.00845753 0.686751 0.00681174
0.00288013 0.671848 0.00315443
0.00864039 0.677974 0.00736034
0.00882326 0.668099 0.00864039
0.0130292 0.683826 0.0112919
0.0230868 0.675139 0.0203438
0.0145835 0.663893 0.0150407
-0.0233611 0.656304 -0.0769407
0.0181494 0.709061 -0.0762092
0.0226296 0.705952 -0.0716376
0.0136692 0.697083 -0.0843467
0.00818323 0.705038 -0.0958672
0.0229039 0.691872 -0.0765749
0.00854896 0.689586 -0.0894669
0.00544025 0.685014 -0.0925757
0.00480022 0.693152 -0.104462
0.00873183 0.680534 -0.0858096
0.00882326 0.673219 -0.0832495
-0.00544025 0.665448 -0.0896498
-0.00242297 0.673036 -0.100713
0.0230868 0.682454 -0.0771235
0.0158636 0.67706 -0.0806894
0.00909756 0.659504 -0.0806894
0.0231782 0.675048 -0.0773978
0.0269269 0.656761 -0.0779464
-0.0197952 0.660053 -0.00379446
-0.0194295 0.641675 -0.00461735
-0.00544025 0.665905 -0.000777178
-0.00525738 0.655939 0.000411447
-0.00608028 0.641035 0.000320015
-0.0192466 0.634178 -0.00489165
0.00425162 0.651824 0.00681174
0.00900613 0.657493 0.0107433
-0.0905641 0.596233 0.0027887
-0.0546311 0.595867 0.00352016
-0.0474993 0.604645 -0.00242297
-0.0332358 0.607205 -0.00580598
0.0235439 0.655024 0.0243668
-0.0191552 0.624577 -0.00498308
-0.0187894 0.606931 -0.00653744
-0.00470879 0.622566 -0.00169151
-0.00434306 0.606565 -0.00690317
0.00928042 0.648441 0.0118405
0.0107433 0.632349 0.00992045
0.0162293 0.643869 0.0187894
0.0238182 0.639572 0.0252812
0.0240011 0.628052 0.0166865
0.00982902 0.620646 0.00160007
0.00992045 0.609399 -0.00763463
0.0240925 0.624851 0.00562311
0.0240925 0.622748 -0.00114291
0.0257383 0.615617 -0.0161379
-0.0624029 0.631983 -0.0936729
-0.0304928 0.639572 -0.103639
-0.0331444 0.612051 -0.114611
-0.0620371 0.613239 -0.0536253
-0.0720947 0.607205 -0.0577398
-0.06222 0.623023 -0.0550882
-0.0618543 0.603822 -0.0525281
-0.0768492 0.574655 -0.0614885
-0.06158 0.588644 -0.0509738
-0.0613057 0.571272 -0.0559111
-0.0477736 0.623846 -0.0559111
-0.0473164 0.607662 -0.0570998
-0.0345159 0.625857 -0.0636829
-0.0306757 0.615068 -0.0679802
-0.0379903 0.595959 -0.0657859
-0.0329615 0.59861 -0.0694432
-0.0325043 0.584255 -0.0738319
-0.0543568 0.587455 -0.053991
-0.047225 0.590473 -0.0581055
-0.0470421 0.574563 -0.0631343
-0.0609399 0.55774 -0.06158
-0.0458535 0.5635 -0.069626
-0.0556368 0.543659 -0.0665173
-0.0608485 0.549054 -0.0626772
-0.0463107 0.548597 -0.0733748
-0.0305843 0.571546 -0.0809637
-0.0401847 0.552162 -0.0783122
-0.0320472 0.556734 -0.0847124
-0.0454878 0.531956 -0.0731919
-0.0302185 0.540733 -0.0857182
-0.0311329 0.520344 -0.0823352
-0.00534882 0.665905 -0.109216
-0.0187894 0.636463 -0.0726433
-0.00507452 0.652281 -0.0799579
-0.00489165 0.640395 -0.0785864
-0.00214867 0.625217 -0.080598
-0.0185151 0.61708 -0.121468
0.00928042 0.65219 -0.0802322
0.00946329 0.642224 -0.0808723
0.00973759 0.62668 -0.0836153
0.0239097 0.642772 -0.0814209
0.024184 0.627777 -0.0848953
0.00992045 0.620097 -0.0848039
0.0243668 0.618908 -0.0857182
-0.0188809 0.619823 -0.0745634
-0.0188809 0.603913 -0.0782207
-0.0183323 0.591021 -0.0834324
-0.00425162 0.608851 -0.0837067
-0.0122977 0.592667 -0.0857182
-0.00397732 0.594404 -0.088004
0.0100119 0.610954 -0.0862668
0.010469 0.594953 -0.0883698
0.0244583 0.610954 -0.0858096
0.0239097 0.593216 -0.0843467
-0.0325043 0.581969 -0.121743
-0.0181494 0.577489 -0.0891012
-0.0205267 0.561214 -0.0910213
-0.00379446 0.586541 -0.0901984
-0.00370303 0.579409 -0.0915699
-0.00114291 0.560848 -0.090747
-0.0174179 0.543659 -0.0909299
-0.0173265 0.536162 -0.0896498
-0.0170522 0.524367 -0.0881869
-0.00297156 0.540276 -0.0891012
-0.00269727 0.524733 -0.0881869
0.010469 0.589101 -0.0885526
0.0107433 0.577581 -0.0884612
0.0109262 0.565603 -0.0871811
0.0244583 0.572918 -0.0798665
0.0111091 0.558288 -0.0859011
0.025464 0.558654 -0.0746548
0.020801 0.55326 -0.0783122
0.0262869 0.544025 -0.068986
0.0113834 0.545031 -0.0837981
0.00516595 0.541099 -0.0864497
0.0114748 0.538905 -0.0829752
0.0124806 0.520252 -0.0838895
0.0219896 0.533327 -0.0745634
-0.0923928 0.558014 0.0138521
-0.0597513 0.558928 0.0142178
-0.0328701 0.587181 -0.00205724
-0.0325043 0.570449 -0.0027887
-0.0321386 0.534516 -0.00452592
-0.0321386 0.5539 -0.00873183
-0.0891926 0.523361 0.013212
-0.0602999 0.522721 0.0148578
-0.0431105 0.525555 0.0112919
-0.0765749 0.515041 -0.0506995
-0.0603913 0.528298 -0.059477
-0.0602085 0.520161 -0.0578312
-0.0585627 0.503977 -0.0573741
-0.0645058 0.495291 -0.0471336
-0.0742891 0.500411 -0.0434763
-0.0597513 0.486605 -0.0353388
-0.0741977 0.494651 -0.0299442
-0.0606656 0.540825 -0.0624943
-0.0557283 0.523635 -0.0627686
-0.0455792 0.512023 -0.0708147
-0.0886441 0.49968 -0.00736034
-0.0743805 0.500137 -0.00352016
-0.0600256 0.508915 0.00946329
-0.0598427 0.498766 -0.000960044
-0.0741977 0.497577 -0.010469
-0.0885526 0.494285 -0.020801
-0.0741977 0.495108 -0.0217153
-0.0884612 0.491634 -0.0318643
-0.0585627 0.491725 -0.0152236
-0.0456707 0.508915 0.0101033
-0.0454878 0.496571 0.00269727
-0.0314986 0.520618 0.00470879
-0.0313157 0.511201 0.00717747
-0.0382646 0.4952 0.00480022
-0.0310414 0.500229 0.00818323
-0.03095 0.493828 0.00708604
-0.0452135 0.486788 -0.00864039
-0.0464936 0.478468 -0.022081
-0.0362531 0.483314 -0.00324586
-0.0304928 0.471519 -0.0114748
-0.0306757 0.480936 0.000228582
-0.0184237 0.591753 -0.00818323
-0.0207095 0.576392 -0.0112919
-0.00406876 0.593947 -0.0108348
-0.00379446 0.579409 -0.0151321
-0.018058 0.57054 -0.0135778
0.000320015 0.564506 -0.0174179
-0.0178751 0.561031 -0.0142178
-0.0165036 0.543933 -0.0139435
-0.003063 0.543385 -0.0162293
0.00973759 0.594679 -0.0152236
0.0105605 0.581512 -0.0177837
0.0245497 0.601993 -0.0218067
0.0217153 0.585992 -0.0240925
0.0110176 0.560757 -0.0207095
0.0273841 0.55902 -0.0354302
0.019338 0.55262 -0.0262869
0.0112005 0.548231 -0.0201609
-0.0171436 0.527567 -0.00818323
-0.00397732 0.522721 -0.0124806
0.0253726 0.53863 -0.037076
0.0124806 0.532962 -0.0215324
0.0112919 0.510743 -0.020801
0.0223553 0.52071 -0.0306757
0.0260126 0.525098 -0.0369845
0.0260126 0.529304 -0.0685288
0.0270184 0.513943 -0.0716376
0.0262869 0.514401 -0.0350645
0.0192466 0.500686 -0.0270184
0.0264698 0.505623 -0.0340587
0.0269269 0.489257 -0.034333
-0.0240925 0.515498 0.00105148
-0.0170522 0.519978 -0.00525738
-0.0168693 0.511201 -0.00187437
-0.0152236 0.49584 0.00571455
-0.00288013 0.502789 -0.00864039
-0.00205724 0.489257 0.000320015
-0.0162293 0.474536 0.00790893
-0.0156807 0.464021 -4.57164e-05
-0.00187437 0.480388 0.0117491
-0.00169151 0.466947 0.0174179
-0.00525738 0.455701 0.0123891
0.00690317 0.492274 -0.0151321
0.0122063 0.496023 -0.0204352
0.00406876 0.484136 -0.00324586
0.0124806 0.485874 -0.0195209
0.012572 0.477279 -0.0080918
0.0174179 0.480571 -0.0232696
0.0271098 0.469141 -0.0110176
0.0270184 0.472524 0.0234525
0.0358874 0.75688 -0.0432934
0.0282984 0.744994 -0.0517967
0.0368017 0.736308 -0.0412819
0.0453049 0.748926 -0.0317729
0.0486879 0.74088 -0.0198866
0.0507909 0.734662 -0.00982902
0.0467679 0.728993 -0.0280241
0.0510652 0.724696 -0.0216238
0.0318643 0.72497 -0.0480479
0.0341501 0.71153 -0.0538996
0.0367102 0.721404 -0.0427448
0.0447563 0.717016 -0.0361617
0.0512481 0.712627 -0.0295785
0.0494194 0.703575 -0.0419219
0.0548139 0.720947 -0.0161379
0.0559111 0.697266 -0.0324129
0.0510652 0.715918 0.015315
0.0516138 0.686751 0.0273841
0.06222 0.704855 0.00763463
0.0596599 0.681083 -0.00864039
0.0589284 0.689129 -0.0206181
0.0618543 0.664808 0.0150407
0.0600256 0.672854 0.00324586
0.0339673 0.68794 -0.0704489
0.0529853 0.682363 -0.0426534
0.0497851 0.673311 -0.0487794
0.0463107 0.681448 -0.0605742
0.0378074 0.668373 -0.0709975
0.0380817 0.654567 -0.0726433
0.0460364 0.661425 -0.0568255
0.0437506 0.649447 -0.0650544
0.052071 0.671756 -0.0324129
0.0495108 0.665173 -0.0368931
0.0526195 0.668191 -0.0174179
0.0471336 0.657036 -0.0249154
0.052071 0.661699 -0.00580598
0.0441163 0.648807 -0.0131206
0.0523452 0.654201 0.00480022
0.0399104 0.638932 -0.00233154
0.0466764 0.653287 -0.0450306
0.0443906 0.645058 -0.0330529
0.0458535 0.641401 -0.0531681
0.0442992 0.633263 -0.0412819
0.0316814 0.6286 -0.00937186
0.0388132 0.636189 -0.0202524
0.0385389 0.622383 -0.0312243
0.0543568 0.677242 -0.0287556
0.0514309 0.649813 0.0413733
0.0579226 0.625491 0.0231782
0.0388132 0.631892 0.0107433
0.0550882 0.608302 0.0463107
0.0385389 0.630886 -0.0776721
0.0348816 0.625583 -0.0813294
0.0412819 0.637561 -0.0731005
0.0386303 0.623114 -0.0775807
0.0453964 0.629514 -0.0613057
0.0446649 0.621377 -0.0494194
0.0430191 0.617537 -0.0694432
0.0440249 0.609491 -0.0575569
0.0286642 0.604736 -0.0257383
0.0389961 0.612782 -0.037076
0.0323215 0.592941 -0.0337844
0.039819 0.600073 -0.0441163
0.038356 0.604645 -0.0742891
0.0400933 0.595776 -0.0668831
0.0339673 0.585444 -0.0738319
0.034973 0.581055 -0.0419219
0.0396361 0.586358 -0.0543568
0.0371674 0.577398 -0.0619457
0.0351559 0.56926 -0.0500594
0.0307671 0.565329 -0.0701746
0.0325958 0.557283 -0.0582884
0.0299442 0.549145 -0.0463107
0.0298528 0.537167 -0.0544482
0.0279327 0.528938 -0.0426534
0.0292128 0.525281 -0.0626772
0.0317729 0.517235 -0.0506995
0.0335101 0.505349 -0.0589284
0.0290299 0.509006 -0.0389046
0.0337844 0.497211 -0.0469507
0.0576483 0.460455 0.010469
0.0936729 -0.908933 0.0189723
0.0972387 -0.913505 0.0256469
0.103365 -0.905001 0.0389961
-0.00132577 0.452866 0.0167779
0.0114748 0.447106 0.025464
0.0284813 0.438511 0.0340587
-0.0168693 0.514126 -0.0871811
-0.00233154 0.509829 -0.0891012
-0.0581969 0.486331 -0.053351
-0.0475907 0.49328 -0.0691689
-0.0318643 0.499131 -0.080598
-0.0306757 0.485142 -0.0823352
-0.0443906 0.481851 -0.0731005
-0.0546311 0.47545 -0.0432934
-0.0517967 0.471793 -0.0634086
-0.0524367 0.463655 -0.0515224
-0.03223 0.469141 -0.0844381
-0.0460364 0.461187 -0.0731919
-0.0514309 0.451861 -0.0596599
-0.050608 0.439974 -0.0677974
-0.0441163 0.448569 -0.0792265
-0.0292128 0.459358 -0.0889183
-0.0447563 0.464936 -0.0332358
-0.0448478 0.455244 -0.0391789
-0.03031 0.461735 -0.0224467
-0.0300357 0.449483 -0.0302185
-0.0458535 0.442443 -0.0457621
-0.0496023 0.431745 -0.0559111
-0.0440249 0.426625 -0.0482308
-0.0302185 0.436409 -0.0346073
-0.0394532 0.423791 -0.0440249
-0.0294871 0.419585 -0.0374417
-0.0496023 0.427997 -0.0759349
-0.0421962 0.435037 -0.0859925
-0.0475907 0.416202 -0.0840724
-0.043842 0.419585 -0.0888269
-0.0297614 0.440797 -0.0939472
-0.0304928 0.422785 -0.0978788
-0.0434763 0.404316 -0.0923014
-0.0293042 0.410259 -0.100256
-0.0302185 0.390966 -0.10245
-0.0509738 0.419859 -0.0640486
-0.0440249 0.412087 -0.0505166
-0.0515224 0.407973 -0.0721862
-0.0490537 0.399927 -0.0602999
-0.0426534 0.390326 -0.0507909
-0.0296699 0.404041 -0.0386303
-0.027567 0.38356 -0.0378074
-0.0510652 0.396087 -0.0803237
-0.0524367 0.387949 -0.0684374
-0.0484136 0.384292 -0.0884612
-0.043202 0.388406 -0.0944957
-0.0531681 0.376063 -0.0765749
-0.0480479 0.379812 -0.0565512
-0.0430191 0.375697 -0.0502423
-0.0524367 0.367925 -0.0646887
-0.043202 0.360154 -0.0508823
-0.0362531 0.371948 -0.0446649
-0.0166865 0.506172 -0.0869983
-0.0172351 0.487611 -0.0884612
-0.0019658 0.492823 -0.0925757
-0.0160464 0.474445 -0.0916613
-0.0158636 0.459998 -0.0961415
-0.00288013 0.475267 -0.0970559
-0.00141721 0.463655 -0.101079
0.0121148 0.507177 -0.0876383
0.0123891 0.493554 -0.0932157
0.0266526 0.501417 -0.0789522
0.0262869 0.489257 -0.0866325
0.0126634 0.479656 -0.0984274
0.0128463 0.465941 -0.102816
0.0222639 0.477645 -0.0952272
0.0271098 0.475176 -0.0914785
0.0274755 0.461095 -0.0964158
-0.0246411 0.459815 -0.0195209
-0.0247326 0.447929 -0.0276584
-0.0157721 0.456432 -0.0145835
-0.0155893 0.445277 -0.0237268
-0.00800037 0.451952 -0.00772607
-0.00205724 0.442626 0.00608028
-0.0033373 0.440157 -0.0157721
-0.000685746 0.435128 -0.00571455
-0.015315 0.43138 -0.028847
-0.0158636 0.417482 -0.0298528
-0.00626314 0.42818 -0.0240011
-0.000411447 0.418305 -0.014675
-0.00489165 0.408247 -0.0201609
0.0271098 0.472067 -0.0292128
-0.0155893 0.44482 -0.0998903
-0.00123434 0.448935 -0.105011
0.0022401 0.433757 -0.106839
-0.0151321 0.429185 -0.102085
-0.0134863 0.413276 -0.103639
-0.0145835 0.396727 -0.105833
-0.000411447 0.41227 -0.106473
-0.000228582 0.398555 -0.107936
0.013212 0.450763 -0.107296
0.0135778 0.433026 -0.109674
0.0297614 0.446923 -0.10117
0.0276584 0.43394 -0.107571
0.0138521 0.417391 -0.109582
0.0142178 0.402761 -0.109765
0.0282984 0.417025 -0.108485
0.0284813 0.40843 -0.107753
0.0285727 0.398464 -0.106839
-0.0151321 0.395538 -0.0253726
-0.0419219 0.372863 -0.0956844
-0.0497851 0.364177 -0.0848039
-0.0424705 0.352473 -0.0927585
-0.0286642 0.378074 -0.10437
-0.0282984 0.360794 -0.104828
-0.0523452 0.356039 -0.0728262
-0.0486879 0.347993 -0.0609399
-0.0491451 0.344244 -0.0810551
-0.049968 0.336015 -0.0690774
-0.0289385 0.33885 -0.10373
-0.0425619 0.330804 -0.0912042
-0.0500594 0.324221 -0.0773064
-0.0480479 0.312334 -0.0854439
-0.0418305 0.317546 -0.0927585
-0.037076 0.320655 -0.0973302
-0.027567 0.325958 -0.104736
-0.0414648 0.300631 -0.0933986
-0.0272927 0.308951 -0.105376
-0.0325043 0.288836 -0.101719
-0.0269269 0.292311 -0.106565
-0.0261041 0.277224 -0.108576
-0.0142178 0.381183 -0.108485
0.000137149 0.383378 -0.111228
0.000320015 0.374874 -0.112965
0.0144921 0.384292 -0.112051
0.0147664 0.370668 -0.11516
0.0279327 0.38228 -0.107936
-0.0139435 0.365365 -0.110954
0.000411447 0.368108 -0.114337
-0.0136692 0.349182 -0.112965
-0.0212581 0.329158 -0.109125
-0.0133035 0.332815 -0.114245
0.000685746 0.353022 -0.117811
0.00105148 0.338118 -0.119914
0.0292128 0.365914 -0.110314
0.0150407 0.354028 -0.118908
0.0122977 0.337935 -0.12092
0.0294871 0.350279 -0.112691
0.0298528 0.333638 -0.114154
-0.00992045 0.318003 -0.115891
0.00141721 0.316814 -0.119914
-0.0133949 0.296425 -0.114702
0.00169151 0.302002 -0.119823
-0.0122977 0.281704 -0.116165
-0.0115662 0.265521 -0.117445
0.00416019 0.286002 -0.121011
0.00233154 0.268264 -0.121651
0.0157721 0.32102 -0.12156
0.015955 0.311329 -0.121834
0.0306757 0.318186 -0.117445
0.0161379 0.303831 -0.1222
0.0304928 0.303374 -0.121011
0.0164122 0.284904 -0.123937
0.0166865 0.271098 -0.125217
0.0307671 0.288379 -0.124577
0.03095 0.279327 -0.126497
0.0310414 0.272835 -0.127412
0.033693 0.493463 -0.0670659
0.0336015 0.481668 -0.0752034
0.0353388 0.485325 -0.0551797
0.0327786 0.477188 -0.043202
0.0357045 0.47353 -0.0633172
0.0352473 0.465301 -0.0514309
0.0330529 0.46969 -0.0832495
0.0321386 0.457804 -0.091387
0.0359788 0.461644 -0.0714547
0.0363445 0.453415 -0.0595684
0.0369845 0.449666 -0.0795922
0.0385389 0.44162 -0.067706
0.0378989 0.449026 -0.0276584
0.0341501 0.457164 -0.0395447
0.0565512 0.440157 -0.0140349
0.0353388 0.445277 -0.0476822
0.0366188 0.43714 -0.0357959
0.0371674 0.433483 -0.0558197
0.0360702 0.425345 -0.043842
0.0570083 0.415288 -0.0286642
0.0392704 0.437963 -0.0877297
0.0423791 0.432294 -0.0764835
0.0395447 0.425985 -0.0958672
0.0425619 0.422419 -0.0903813
0.0453964 0.417939 -0.083981
0.034973 0.414007 -0.104005
0.0428362 0.406053 -0.0921185
0.0367102 0.394075 -0.100256
0.0422876 0.420865 -0.0659687
0.0387218 0.413459 -0.052071
0.0429277 0.40075 -0.0609399
0.0460364 0.409893 -0.0720947
0.0560026 0.382829 -0.0323215
0.0422876 0.388041 -0.0869983
0.043202 0.389686 -0.0684374
0.0405504 0.377892 -0.0765749
0.0456707 0.398007 -0.0802322
0.041099 0.37652 -0.0424705
0.0374417 0.369663 -0.0645972
0.0351559 0.361525 -0.0528024
0.0859925 0.405961 -0.0229039
0.0859011 0.411173 -0.0218067
0.0386303 0.365914 -0.0847124
0.0347902 0.362074 -0.104645
0.0374417 0.354028 -0.09285
0.0360702 0.357776 -0.0727348
0.0331444 0.349547 -0.0609399
0.0357045 0.345799 -0.0808723
0.0321386 0.337661 -0.068986
0.0361617 0.342141 -0.100896
0.0347902 0.330255 -0.109034
0.0365274 0.333912 -0.0891012
0.0334187 0.325775 -0.0771235
0.0391789 0.322209 -0.0971473
0.0384475 0.314071 -0.0853525
0.0443906 0.306574 -0.106565
0.0450306 0.301454 -0.0911127
0.0455792 0.298711 -0.113788
0.0512481 0.290482 -0.101628
0.0453964 0.28655 -0.121651
0.0454878 0.271921 -0.125674
0.0544482 0.278687 -0.109674
0.0541739 0.266801 -0.117811
0.112508 -0.913687 0.0496937
0.100165 -0.91707 0.0308586
-0.0284813 0.3682 -0.0389046
-0.028207 0.352016 -0.041099
0.110131 -0.926397 0.0448478
0.000137149 0.398738 -0.0110176
0.00525738 0.43586 0.0160464
0.0133949 0.431745 0.0223553
0.00617171 0.424065 0.00790893
0.0152236 0.417391 0.0178751
0.0210752 0.428088 0.0280241
0.0282984 0.408247 0.0316814
0.00608028 0.412179 -0.000137149
0.0144007 0.403493 0.0105605
0.0107433 0.392246 0.00361159
0.0143092 0.387766 0.0101033
0.0157721 0.38228 0.0141264
0.0290299 0.375789 0.0268355
0.0886441 -0.921002 0.0108348
-0.0144921 0.376246 -0.0229039
-0.00973759 0.388132 -0.0165036
4.57164e-05 0.379995 -0.00379446
-0.00982902 0.368108 -0.0127549
0.000320015 0.366645 0.00361159
-0.00461735 0.359971 -0.000868611
0.000960044 0.351102 0.00946329
-0.0204352 0.364085 -0.0327786
-0.0138521 0.355582 -0.0215324
-0.0178751 0.344153 -0.0290299
-0.0151321 0.336015 -0.0172351
-0.0135778 0.341044 -0.0137606
-0.0133035 0.327878 -0.00626314
-0.0105605 0.347993 -0.00900613
-0.00553168 0.339947 0.00288013
0.00507452 0.372131 0.0072689
0.0142178 0.365 0.0197038
0.00150864 0.31206 0.0178751
-0.00790893 0.319923 0.00662887
0.0297614 0.334552 0.0311329
0.03031 0.305843 0.028207
-0.0423791 0.34333 -0.0540825
-0.0421048 0.327786 -0.0574655
-0.0356131 0.340038 -0.0490537
-0.0278413 0.336198 -0.0432934
-0.0268355 0.319557 -0.046585
-0.0473164 0.316083 -0.0653287
-0.0417391 0.312426 -0.0598427
-0.050608 0.304197 -0.0734662
-0.0410076 0.294139 -0.0639572
-0.0321386 0.30822 -0.0535339
-0.0272012 0.304288 -0.0475907
-0.0297614 0.288196 -0.0497851
-0.0271098 0.294596 -0.0453964
-0.0297614 0.280059 -0.0378074
-0.0268355 0.291305 -0.0300357
-0.0302185 0.283899 -0.0178751
-0.0271098 0.295602 -0.00982902
-0.0329615 0.27567 -0.00598885
-0.0273841 0.288653 0.00288013
-0.0328701 0.271921 -0.0260126
-0.0361617 0.263692 -0.0141264
-0.0378989 0.255463 -0.0022401
-0.0263783 0.247966 0.0102862
-0.0268355 0.282801 0.00928042
-0.0485051 0.292219 -0.0816952
-0.0419219 0.283167 -0.0682545
-0.0413733 0.279967 -0.090747
-0.0416476 0.270915 -0.0756606
-0.0348816 0.27631 -0.0579226
-0.0328701 0.268172 -0.0460364
-0.0372588 0.264332 -0.0660602
-0.0337844 0.256195 -0.0541739
-0.0407333 0.259852 -0.0853525
-0.0367102 0.268721 -0.0979702
-0.0306757 0.257017 -0.106016
-0.0263783 0.259578 -0.109765
-0.0387218 0.248697 -0.0942214
-0.0380817 0.252446 -0.0741977
-0.0338758 0.2444 -0.0623114
-0.0385389 0.24056 -0.0823352
-0.0346073 0.232513 -0.0704489
-0.0346987 0.260035 -0.0340587
-0.0379903 0.251806 -0.0222639
-0.0339673 0.248148 -0.0421962
-0.036436 0.23992 -0.0304014
-0.0406419 0.245771 -0.00946329
-0.0400933 0.232605 -0.0178751
-0.040459 0.239645 -0.00461735
-0.0368017 0.235531 0.00150864
-0.039819 0.223553 -0.00662887
-0.0319557 0.236262 -0.0504252
-0.0331444 0.228033 -0.0385389
-0.0312243 0.224376 -0.0585627
-0.0304928 0.21633 -0.0466764
-0.0363445 0.219896 -0.0266526
-0.0384475 0.211758 -0.0147664
-0.0324129 0.208101 -0.0347902
-0.0350645 0.199872 -0.0229039
-0.022081 0.332175 -0.0371674
-0.0194295 0.324129 -0.0253726
-0.0203438 0.3159 -0.0133949
-0.0221724 0.312151 -0.0335101
-0.0245497 0.303922 -0.0215324
-0.0250069 0.300174 -0.0416476
0.0300357 0.321203 -0.0446649
0.0277498 0.309408 -0.053351
0.0298528 0.315992 -0.0679802
0.0295785 0.331809 -0.0587455
0.0304014 0.298345 -0.0626772
0.0304928 0.301271 -0.0415562
0.0304928 0.287099 -0.0512481
0.0307671 0.285362 -0.0435677
-0.0198866 0.307763 -0.00150864
-0.0131206 0.314803 0.00315443
-0.0143092 0.301271 0.0113834
0.0022401 0.269727 0.0221724
0.0308586 0.277041 0.0194295
0.0312243 0.258572 0.016595
0.0312243 0.254092 -0.0215324
0.0314986 0.240102 -0.0324129
0.0313157 0.258663 -0.0302185
0.0312243 0.245771 -0.00973759
0.0299442 0.233062 -0.0184237
0.0316814 0.244308 0.00681174
0.0271098 0.224833 -0.00653744
0.0318643 0.22017 -0.0281156
0.0272927 0.213038 -0.0147664
0.0321386 0.199963 -0.024824
-0.0256469 0.218341 0.00150864
-0.0250983 0.203529 -0.00324586
-0.03031 0.191826 -0.0110176
-0.0250983 0.189449 -0.00736034
0.00269727 0.242845 0.0174179
-0.0112005 0.218341 0.0019658
0.00324586 0.218799 0.00169151
-0.00790893 0.204626 -0.00242297
-0.0105605 0.188809 -0.00598885
0.00352016 0.202889 -0.00489165
0.00379446 0.189449 -0.00653744
0.034973 0.212764 0.0199781
0.0176008 0.21953 0.000960044
0.0178751 0.207187 -0.00662887
0.019338 0.194477 -0.00900613
0.041099 0.400293 0.0435677
0.0441163 0.365457 -0.0332358
0.0358874 0.353388 -0.0408247
0.0433848 0.344884 -0.0268355
0.0570083 0.358051 -0.0204352
0.0519795 0.337387 -0.0171436
0.0591113 0.329981 -0.00672031
0.0319557 0.341318 -0.0489622
0.034973 0.333272 -0.037076
0.0442077 0.329524 -0.0223553
0.0409162 0.325318 -0.0251897
0.0455792 0.318369 -0.0171436
0.0344244 0.313249 -0.0333272
0.0387218 0.305203 -0.021441
0.0342416 0.305751 -0.0733748
0.0337844 0.293225 -0.0296699
0.0313157 0.281247 -0.0378074
0.0427448 0.289019 0.0022401
0.0331444 0.264972 -0.0140349
0.0334187 0.256926 -0.00205724
0.0416476 0.294048 -0.0816037
0.0360702 0.285819 -0.069626
0.0451221 0.288287 -0.0855353
0.0417391 0.274024 -0.077855
0.0453049 0.27823 -0.0838895
0.0485965 0.282253 -0.0896498
0.0325958 0.27759 -0.0578312
0.03159 0.269452 -0.0458535
0.0367102 0.265795 -0.0659687
0.0340587 0.257566 -0.0540825
0.045945 0.262321 -0.0840724
0.0528024 0.270458 -0.0978788
0.0543568 0.258572 -0.106016
0.0501509 0.250434 -0.0940386
0.040459 0.254 -0.0741062
0.0368017 0.245771 -0.06222
0.0449392 0.243668 -0.0843467
0.0392704 0.233976 -0.0702661
0.0325043 0.249429 -0.0421048
0.0348816 0.237542 -0.0503337
0.0335101 0.229405 -0.0384475
0.0368931 0.225747 -0.0584712
0.0358874 0.217519 -0.046585
0.0345159 0.209381 -0.0346987
0.0970559 -0.928957 0.0245497
0.10309 -0.937003 0.0345159
0.1254 -0.889001 0.0673402
0.118725 -0.900978 0.0590198
0.0829752 -0.888543 0.137652
0.0827009 -0.915699 0.130337
0.0856268 -0.950169 0.131343
0.0829752 -0.92914 0.129332
0.0699003 -0.959221 0.142589
0.111228 -0.90171 0.136372
0.110954 -0.890464 0.145332
