-0.228729 -0.0106829 -0.198779
-0.301984 0.0324304 -0.167493
-0.245899 0.0518886 -0.19153
-0.302366 -0.0541778 -0.1591
-0.319153 -0.00495994 -0.120565
-0.307707 -0.0885158 -0.107974
-0.301984 -0.0434948 -0.085082
-0.294353 -0.132392 -0.140786
-0.240939 -0.0999618 -0.194964
-0.238649 -0.188859 -0.189622
-0.0555132 0.0682945 -0.294544
-0.123808 0.117512 -0.256391
-0.0688668 0.138497 -0.295307
-0.00591377 0.079359 -0.312095
-0.00972911 0.15681 -0.30599
-0.00438764 0.0515071 -0.312858
-0.182182 -0.0156429 -0.217856
-0.188668 0.0732545 -0.217093
-0.116559 0.0293781 -0.24876
-0.122282 -0.0572301 -0.241129
-0.17913 -0.0713468 -0.222434
-0.175315 -0.143075 -0.227013
-0.199733 -0.228157 -0.21404
-0.171499 -0.217093 -0.227013
-0.116177 -0.124762 -0.246471
-0.113888 -0.169783 -0.24876
-0.11198 -0.198016 -0.248378
-0.0619992 -0.000381534 -0.275086
-0.0608546 -0.0282335 -0.271271
-0.0360549 -0.0156429 -0.286532
-0.0017169 0.000381534 -0.30599
-0.0524609 -0.100725 -0.269744
-0.000190767 -0.0320488 -0.299886
0.00247997 -0.0858451 -0.290347
0.0040061 -0.114842 -0.28615
-0.0562762 -0.18657 -0.264021
0.00667684 -0.167875 -0.280046
-0.169973 -0.244945 -0.227394
-0.103968 -0.272034 -0.246089
-0.0478825 -0.272034 -0.259824
0.00858451 -0.201831 -0.275849
0.0108737 -0.248378 -0.272034
0.0131629 -0.294544 -0.269744
-0.29855 -0.102633 -0.0881343
-0.278329 -0.122472 -0.0591377
-0.261541 -0.0732545 -0.0232736
-0.252766 -0.157192 -0.0106829
-0.239031 -0.107974 0.0194582
-0.277947 -0.170927 -0.0950019
-0.257726 -0.205647 -0.0465471
-0.241702 -0.191911 0.0377718
-0.23636 -0.167493 0.0553224
-0.235979 -0.219 0.0923312
-0.24628 -0.241129 0.00190767
-0.244754 -0.27623 0.0503625
-0.265738 -0.218619 -0.130485
-0.256581 -0.254101 -0.0824113
-0.245899 -0.266311 -0.165967
-0.230256 -0.249142 -0.188478
-0.253529 -0.302175 -0.117894
-0.248188 -0.289203 -0.0339565
-0.247425 -0.324685 0.0148798
-0.251622 -0.338039 -0.0694391
-0.249714 -0.373903 -0.0209844
-0.239412 -0.311713 0.0988172
-0.222625 -0.339565 0.137734
-0.247425 -0.360549 0.0629531
-0.230256 -0.382297 0.120946
-0.25124 -0.409004 0.0274704
-0.244372 -0.444868 0.0755437
-0.22148 -0.480733 0.126669
-0.227966 -0.292255 -0.185807
-0.243228 -0.350248 -0.153377
-0.22644 -0.328501 -0.18161
-0.217665 -0.396414 -0.185425
-0.255437 -0.386494 -0.105303
-0.255055 -0.422358 -0.0568485
-0.254674 -0.43533 -0.140786
-0.263831 -0.471194 -0.0927127
-0.223006 -0.489126 -0.185807
-0.268027 -0.520031 -0.128195
-0.250477 -0.567722 -0.163678
-0.214994 -0.544449 -0.191911
-0.255055 -0.458222 -0.00839374
-0.25124 -0.493705 0.040061
-0.263831 -0.507058 -0.0438764
-0.261541 -0.542541 0.00419687
-0.234071 -0.528043 0.0885158
-0.214231 -0.570775 0.125525
-0.247806 -0.577642 0.0526517
-0.223006 -0.611599 0.101488
-0.286341 -0.640595 -0.0671499
-0.275277 -0.585654 -0.0267074
-0.275277 -0.561618 -0.0839374
-0.27375 -0.608165 -0.120946
-0.288249 -0.676459 -0.0186952
-0.269935 -0.632965 0.0125906
-0.273369 -0.610836 -0.00534147
-0.269172 -0.713468 0.0389164
-0.243991 -0.66158 0.0656238
-0.228348 -0.143075 0.073636
-0.220336 -0.178176 0.121709
-0.172644 -0.295689 0.189241
-0.193628 -0.212514 0.170546
-0.17417 -0.225105 0.189241
-0.11198 -0.265166 0.203739
-0.113888 -0.232354 0.202976
-0.16158 -0.376574 0.192675
-0.109691 -0.307898 0.204884
-0.10702 -0.360549 0.208317
-0.105876 -0.386494 0.210225
-0.187905 -0.513163 0.172835
-0.103205 -0.44525 0.220527
-0.0520794 -0.265166 0.201831
-0.0536055 -0.227776 0.201831
0.00858451 -0.27356 0.193819
-0.000190767 -0.17169 0.20145
-0.0459748 -0.383441 0.210988
0.013926 -0.375048 0.204121
-0.0433041 -0.439145 0.222816
0.0169783 -0.436856 0.222434
-0.207364 -0.312476 -0.20145
-0.167684 -0.292636 -0.225868
-0.16425 -0.355589 -0.222434
-0.108928 -0.357879 -0.239603
-0.153186 -0.441816 -0.222053
-0.100153 -0.428462 -0.23884
-0.0986265 -0.460511 -0.23884
-0.161198 -0.531095 -0.217093
-0.0963373 -0.502862 -0.239222
-0.0448302 -0.336513 -0.258298
0.014689 -0.325067 -0.268981
-0.0421595 -0.38306 -0.258298
-0.0410149 -0.410912 -0.257917
-0.0322396 -0.484929 -0.256391
0.0185044 -0.397177 -0.268981
0.0230828 -0.483022 -0.264021
-0.202022 -0.61198 -0.194201
-0.283289 -0.68905 -0.102633
-0.269172 -0.66921 -0.128577
-0.263831 -0.735979 -0.133918
-0.250858 -0.65166 -0.151087
-0.201641 -0.696681 -0.183518
-0.29855 -0.725296 -0.0545593
-0.296643 -0.76116 -0.00610454
-0.299313 -0.77375 -0.090042
-0.309615 -0.809996 -0.0419687
-0.205837 -0.784815 -0.177795
-0.284433 -0.821442 -0.125906
-0.261923 -0.808089 -0.141931
-0.310378 -0.858833 -0.0774514
-0.253911 -0.862266 -0.15185
-0.292446 -0.906143 -0.112934
-0.199351 -0.848913 -0.183899
-0.244754 -0.951545 -0.143457
-0.197062 -0.893171 -0.181229
-0.195155 -0.930942 -0.173216
-0.193247 -0.97024 -0.163296
-0.152041 -0.595574 -0.219763
-0.14937 -0.639832 -0.220145
-0.0814575 -0.570393 -0.2438
-0.0944296 -0.658909 -0.237696
-0.0326211 -0.571156 -0.254483
-0.0291873 -0.639069 -0.251812
0.0272797 -0.568104 -0.256391
0.0307135 -0.637543 -0.249523
-0.0272797 -0.674552 -0.249142
0.0322396 -0.667303 -0.246089
-0.148226 -0.669973 -0.219382
-0.134109 -0.741702 -0.218237
-0.142503 -0.827928 -0.210225
-0.0841282 -0.742465 -0.232354
-0.0806944 -0.811141 -0.225486
-0.0249905 -0.71881 -0.244563
-0.0230828 -0.762686 -0.239603
-0.0207936 -0.802366 -0.232354
0.0349103 -0.719954 -0.238459
0.036818 -0.752003 -0.233499
0.0486456 -0.817245 -0.21137
-0.0791683 -0.843953 -0.222816
-0.141358 -0.913773 -0.201068
-0.0768791 -0.8905 -0.219
-0.0742083 -0.93285 -0.21404
-0.0726822 -0.972911 -0.208317
-0.0188859 -0.84319 -0.224342
-0.0165967 -0.888211 -0.217474
-0.0143075 -0.928653 -0.212896
-0.0123998 -0.968333 -0.209462
0.0448302 -0.901564 -0.194964
0.053987 0.0743991 -0.297596
0.0513163 0.133155 -0.279283
0.0742083 0.122472 -0.263258
0.0585654 0.000381534 -0.30103
0.113506 0.0888974 -0.21404
0.105113 0.040061 -0.250286
0.11694 0.0225105 -0.225486
0.0826021 -0.00953834 -0.28615
0.118848 -0.0461656 -0.22396
0.0600916 -0.0270889 -0.297978
0.0726822 -0.0946204 -0.278138
0.0715376 -0.18161 -0.266692
0.123045 -0.101106 -0.204884
0.115032 -0.127814 -0.224723
0.125715 -0.14689 -0.197634
0.127242 -0.210988 -0.203739
0.132965 0.0541778 -0.165967
0.125334 0.00534147 -0.201831
0.152804 0.0194582 -0.117131
0.138306 -0.0297596 -0.152995
0.17417 -0.00801221 -0.0633346
0.153567 -0.0644792 -0.10454
0.128768 -0.078596 -0.188859
0.14174 -0.113697 -0.140023
0.133728 -0.162533 -0.176269
0.0822205 -0.26364 -0.25372
0.174933 -0.050744 -0.0202213
0.166539 -0.0995803 -0.0560855
0.167303 -0.0869897 0.027852
0.171499 -0.134681 -0.00763068
0.158146 -0.148417 -0.0915681
0.171881 -0.183136 -0.0431133
0.147844 -0.123617 0.0763068
0.165395 -0.170927 0.0404426
0.121519 -0.159863 0.115986
0.145937 -0.207554 0.0888974
0.177986 -0.218619 0.00495994
0.176459 -0.254483 0.0534147
0.15166 -0.197253 -0.127432
0.172262 -0.231591 -0.078596
0.147844 -0.245708 -0.163296
0.170355 -0.280427 -0.114842
0.190958 -0.275467 -0.0366272
0.190958 -0.277375 0.0366272
0.193628 -0.315528 -0.0667684
0.202022 -0.301793 0.0179321
0.212324 -0.349866 -0.0175506
0.138306 -0.327356 0.155666
0.0631438 -0.365509 0.194964
0.0780237 -0.449447 0.22129
0.134872 -0.386494 0.18161
0.106639 -0.449065 0.210988
0.137543 -0.433422 0.19153
0.143647 -0.485311 0.188859
0.168066 -0.290729 0.10187
0.192484 -0.314765 0.0835559
0.194773 -0.375811 0.110645
0.205074 -0.337276 0.0663869
0.218428 -0.384968 0.0309042
0.209271 -0.421213 0.0789775
0.194773 -0.450973 0.118275
0.0753529 -0.330408 -0.257154
0.134491 -0.295307 -0.200305
0.10702 -0.344907 -0.235025
0.137543 -0.380389 -0.193056
0.0776421 -0.376574 -0.257535
0.0791683 -0.405189 -0.256391
0.0700114 -0.478825 -0.252575
0.115414 -0.428462 -0.222053
0.142503 -0.463182 -0.173979
0.113125 -0.512781 -0.209081
0.144411 -0.547882 -0.155284
0.161961 -0.329264 -0.150324
0.185235 -0.363602 -0.10187
0.197062 -0.382678 -0.0755437
0.167303 -0.413201 -0.137734
0.198588 -0.418161 -0.0675315
0.188287 -0.447921 -0.0888974
0.205074 -0.398703 -0.0530332
0.166158 -0.49752 -0.124762
0.202022 -0.483022 -0.0408241
0.214231 -0.433804 -0.00457841
0.209271 -0.469668 0.0434948
0.203548 -0.521938 0.0122091
0.177986 -0.542541 0.140023
0.199733 -0.499809 0.0839374
0.199351 -0.554369 0.0560855
0.197825 -0.590233 0.10454
0.188287 -0.531858 -0.0763068
0.197062 -0.567341 -0.027852
0.170736 -0.581457 -0.111789
0.189813 -0.615795 -0.0633346
0.198588 -0.602823 0.0206028
0.20889 -0.638688 0.0694391
0.195918 -0.651278 -0.0152614
0.210797 -0.687905 0.0354826
0.0864174 -0.545975 -0.232736
0.0616177 -0.563907 -0.245326
0.0879435 -0.576116 -0.226631
0.0902327 -0.62686 -0.218237
0.0665776 -0.647844 -0.232736
0.112362 -0.5971 -0.19649
0.0921404 -0.660435 -0.213659
0.149752 -0.631057 -0.146127
0.119992 -0.680656 -0.183899
0.15433 -0.715757 -0.140404
0.0948111 -0.711942 -0.206028
0.0707745 -0.731782 -0.219763
0.0963373 -0.745135 -0.199542
0.0982449 -0.787867 -0.187715
0.123426 -0.764594 -0.170927
0.103586 -0.851583 -0.162915
0.158146 -0.799313 -0.120183
0.166539 -0.841663 -0.0797406
0.137161 -0.884014 -0.109882
0.180275 -0.665013 -0.0991988
0.193247 -0.700114 -0.050744
0.203167 -0.734834 -0.0022892
0.184853 -0.748951 -0.0866082
0.192865 -0.784433 -0.0381534
0.103586 -0.935902 -0.138878
-0.213087 -0.628386 0.125143
-0.218047 -0.695536 0.114079
-0.210797 -0.67417 0.130103
-0.20889 -0.71156 0.136208
-0.243228 -0.745517 0.0782144
-0.215376 -0.779473 0.126669
-0.206601 -0.756963 0.143075
-0.204693 -0.795879 0.149561
-0.15433 -0.552079 0.212896
-0.0971003 -0.560473 0.244182
-0.0371995 -0.55971 0.247615
0.0207936 -0.514689 0.240366
0.0185044 -0.468905 0.230446
0.0230828 -0.552079 0.241892
-0.180656 -0.596719 0.185807
-0.153949 -0.620755 0.220145
-0.200496 -0.646318 0.149943
-0.171499 -0.680275 0.198398
-0.152423 -0.648989 0.22129
-0.137924 -0.630294 0.234643
-0.0944296 -0.607402 0.249905
-0.150134 -0.696299 0.22129
-0.0906143 -0.712324 0.247997
-0.194391 -0.730256 0.162533
-0.148607 -0.763831 0.218619
-0.195536 -0.826402 0.16673
-0.146318 -0.852728 0.239222
-0.0852728 -0.796643 0.256009
-0.0345288 -0.604731 0.249905
0.0246089 -0.625334 0.231591
0.031095 -0.708508 0.232736
0.0349103 -0.790538 0.249523
-0.26612 -0.797024 0.0534147
-0.292446 -0.844716 0.00648607
-0.260015 -0.879435 0.0579931
-0.239031 -0.829454 0.090805
-0.213087 -0.863792 0.139641
-0.200496 -0.896986 0.189622
-0.234452 -0.913392 0.103777
-0.224151 -0.948493 0.152614
-0.302366 -0.893552 -0.0293781
-0.277184 -0.928272 0.0194582
-0.300458 -0.942007 -0.0648607
-0.285196 -0.977108 -0.016406
-0.255437 -0.963373 0.0602823
-0.227203 -0.984357 0.200687
-0.197825 -0.931324 0.231591
0.0822205 -0.536055 0.222053
0.0856543 -0.596719 0.20641
0.0867989 -0.670736 0.194964
0.117322 -0.581457 0.188096
0.144792 -0.567722 0.172072
0.1467 -0.604349 0.170164
0.148226 -0.64174 0.170927
0.15166 -0.709653 0.178939
0.0898512 -0.755055 0.206028
0.0967188 -0.836322 0.222434
0.156238 -0.793972 0.187333
0.171499 -0.627242 0.152614
0.21385 -0.664632 0.123998
0.17913 -0.710797 0.165586
0.211179 -0.690576 0.140404
0.213087 -0.731782 0.148798
0.229874 -0.721099 0.0816482
0.229111 -0.756963 0.130103
0.215376 -0.772606 0.150706
0.160816 -0.880961 0.195345
0.159672 -0.912247 -0.0568485
0.166921 -0.983976 0.125143
0.167303 -0.983213 0.0274704
0.217665 -0.769935 0.0427318
0.201259 -0.819535 0.0103014
0.219573 -0.817245 0.102633
0.204693 -0.854636 0.0587562
0.201641 -0.842045 0.142694
0.192865 -0.890881 0.107211
0.17417 -0.92789 0.155284
0.181419 -0.869134 -0.0255628
0.185616 -0.904235 0.022892
0.166158 -0.953834 -0.0133537
0.179893 -0.940481 0.0713468
0.100534 -0.890881 0.259443
0.139832 -0.916826 0.23884
0.163106 -0.959176 0.19649
0.155857 -1 0.251812
0.124952 -0.968714 -0.0972911
-0.29359 0.993895 -0.0465471
-0.29359 1 0.0141167
-0.293972 0.948493 -0.00610454
-0.175696 0.973674 -0.228157
-0.230256 0.96757 0.0637161
-0.252385 0.927127 0.040061
-0.237505 0.989699 -0.144983
-0.261923 0.949256 -0.0919496
-0.249332 0.901564 -0.127814
-0.230637 0.940481 -0.169401
-0.28367 0.912629 -0.0442579
-0.272224 0.877528 0.00419687
-0.27108 0.864556 -0.079359
-0.27604 0.828691 -0.0312858
-0.111599 0.930561 -0.260206
-0.0509348 0.947348 -0.275467
-0.0490271 0.909576 -0.276994
-0.242465 0.853491 -0.163296
-0.228348 0.872568 -0.188478
-0.232545 0.810378 -0.205265
-0.206601 0.890881 -0.21137
-0.169592 0.908432 -0.232354
-0.160816 0.845479 -0.244563
-0.263449 0.816482 -0.114842
-0.277184 0.780237 -0.0667684
-0.261541 0.768409 -0.151087
-0.277947 0.731782 -0.102633
-0.21652 0.758871 -0.231973
-0.162343 0.772987 -0.251049
-0.160435 0.735597 -0.252194
-0.257726 0.719954 -0.18657
-0.278329 0.682945 -0.137734
-0.218428 0.672644 -0.222434
-0.270698 0.629149 -0.165586
-0.158527 0.698207 -0.250668
-0.106639 0.861503 -0.265166
-0.0471194 0.87562 -0.279664
-0.0909958 0.801602 -0.278138
-0.102823 0.713468 -0.272415
-0.0429225 0.800076 -0.287676
-0.0394887 0.733689 -0.289584
-0.21652 0.586417 -0.213659
-0.155093 0.631438 -0.242655
-0.145555 0.544067 -0.239603
-0.0379626 0.692865 -0.287676
-0.0997711 0.628386 -0.261351
-0.0909958 0.558947 -0.259443
-0.0356734 0.654712 -0.283861
-0.0326211 0.589088 -0.283098
-0.0894697 0.523464 -0.261351
-0.0410149 0.500191 -0.283098
0.0745899 0.99504 -0.229302
0.148226 0.94773 0.0431133
0.125334 0.97024 -0.0839374
0.100916 0.955361 -0.173598
0.112362 0.920259 -0.124762
0.133346 0.881343 -0.0835559
0.158909 0.935521 -0.0404426
0.160435 0.899657 0.00763068
0.160435 0.851202 -0.027852
0.00934758 0.946585 -0.269744
0.0108737 0.919496 -0.271652
0.0681038 0.966043 -0.239222
0.0440671 0.939336 -0.257917
0.0127814 0.87562 -0.275086
0.070393 0.929035 -0.241892
0.076116 0.856543 -0.246852
0.0165967 0.805799 -0.280809
0.0207936 0.733308 -0.283861
0.0776421 0.787104 -0.251431
0.0795498 0.744372 -0.253338
0.0600916 0.72377 -0.268218
0.081839 0.71156 -0.250286
0.0967188 0.906524 -0.209462
0.111217 0.871805 -0.161007
0.108928 0.822968 -0.19649
0.122282 0.836322 -0.112171
0.140214 0.801602 -0.0702022
0.115032 0.787867 -0.148035
0.121137 0.752385 -0.0995803
0.0978634 0.774132 -0.232354
0.112743 0.739031 -0.183899
0.113506 0.703548 -0.135063
0.101297 0.690195 -0.219382
0.113125 0.655093 -0.170927
0.0223197 0.700114 -0.284243
0.0242274 0.655857 -0.280427
0.0276612 0.593285 -0.279283
0.0837467 0.661198 -0.239985
0.0658146 0.639832 -0.255628
0.0860359 0.624189 -0.232354
0.0864174 0.556276 -0.232736
0.0322396 0.505151 -0.278901
0.103205 0.605876 -0.206791
-0.139832 0.993895 0.161007
-0.116177 0.98016 0.18161
-0.0822205 0.961084 0.209844
-0.053224 0.923312 0.236169
0.0665776 0.919496 0.277757
0.124952 0.931324 0.252194
-0.282526 0.647081 -0.090042
-0.279092 0.673407 -0.0705837
-0.276803 0.629912 -0.0660053
-0.285196 0.598626 -0.125525
-0.276421 0.557039 -0.0682945
-0.274514 0.584891 -0.0614269
-0.232163 0.913773 0.0595193
-0.168829 0.941625 0.119039
-0.193247 0.893934 0.0888974
-0.170355 0.878291 0.112552
-0.227203 0.839756 0.0473102
-0.245517 0.794353 0.017169
-0.225296 0.77871 0.0404426
-0.167684 0.811522 0.106448
-0.195155 0.76116 0.0660053
-0.162343 0.726059 0.111408
-0.114269 0.909576 0.181992
-0.148607 0.861122 0.137734
-0.128768 0.826021 0.186188
-0.109691 0.85311 0.205647
-0.113506 0.798169 0.240366
-0.0841282 0.877146 0.222434
-0.0494086 0.84319 0.255246
-0.144029 0.777184 0.150706
-0.140977 0.741702 0.198779
-0.153186 0.692484 0.163296
-0.0452118 0.760397 0.282335
-0.108928 0.623426 0.260206
-0.0410149 0.669973 0.292636
-0.145555 0.657001 0.21137
-0.0375811 0.605494 0.290729
-0.262686 0.745517 -0.0183136
-0.221099 0.710416 0.0282335
-0.274132 0.695918 -0.0541778
-0.243228 0.661961 -0.00572301
-0.211942 0.634491 0.034338
-0.18409 0.677986 0.0789775
-0.168447 0.642884 0.127432
-0.160053 0.669592 0.146509
-0.18409 0.594048 0.0915681
-0.263449 0.612362 -0.0415872
-0.226059 0.579168 0.00724914
-0.215757 0.605113 0.0267074
-0.21385 0.56467 0.0274704
-0.247425 0.529187 -0.028615
-0.210797 0.494468 0.0263258
-0.197062 0.544449 0.0557039
-0.155475 0.60702 0.170546
-0.167303 0.558947 0.140023
-0.152804 0.510492 0.171309
-0.179512 0.509729 0.10454
-0.190958 0.460893 0.0686761
-0.173789 0.426173 0.117131
-0.14937 0.384586 0.175124
-0.124952 0.574208 0.224342
-0.0307135 0.479206 0.259061
-0.118085 0.357497 0.214422
-0.0272797 0.413201 0.252575
-0.0234643 0.341473 0.243419
-0.272224 0.550172 -0.162152
-0.28863 0.514689 -0.112934
-0.269554 0.463182 -0.154903
-0.268791 0.476536 -0.0732545
-0.276421 0.431133 -0.0999618
-0.265738 0.413583 -0.0759252
-0.264975 0.375811 -0.144983
-0.263068 0.345288 -0.0747806
-0.277566 0.297978 -0.122854
-0.252003 0.330408 -0.164441
-0.258871 0.282335 -0.0602823
-0.267646 0.263258 -0.0743991
-0.256963 0.247234 -0.0522701
-0.264975 0.254483 -0.16406
-0.289393 0.213659 -0.110263
-0.270317 0.178939 -0.0618085
-0.255055 0.204121 -0.0438764
-0.300839 0.164441 -0.146127
-0.244754 0.204884 -0.190767
-0.29855 0.128577 -0.0980542
-0.249714 0.147272 -0.0263258
-0.269935 0.0946204 -0.0492179
-0.24628 0.0557039 -0.00915681
-0.316482 0.079359 -0.133537
-0.309233 0.10454 -0.115223
-0.30847 0.0934758 -0.151469
-0.277566 0.117131 -0.18161
-0.249332 0.115605 -0.191148
-0.305036 0.0408241 -0.0938573
-0.267646 0.0106829 -0.0362457
-0.234452 0.504388 -0.19649
-0.209653 0.516978 -0.211751
-0.231019 0.446013 -0.0156429
-0.249332 0.396795 -0.0515071
-0.208127 0.487219 -0.210225
-0.235216 0.42045 -0.183899
-0.205837 0.438001 -0.205647
-0.202404 0.377718 -0.202594
-0.148989 0.458985 -0.23388
-0.169973 0.375429 -0.219
-0.142121 0.372758 -0.231209
-0.0871805 0.487219 -0.262877
-0.0822205 0.41549 -0.266311
-0.0242274 0.433422 -0.28615
-0.206219 0.41053 0.027852
-0.219573 0.362457 -0.00305227
-0.200496 0.322778 0.0362457
-0.18409 0.376955 0.0812667
-0.167684 0.342236 0.129721
-0.1467 0.316673 0.185044
-0.183327 0.293018 0.0942388
-0.179512 0.257154 0.142694
-0.240557 0.313239 -0.0385349
-0.214231 0.278901 0.00991988
-0.239412 0.22892 -0.0259443
-0.199351 0.249142 0.0625715
-0.219191 0.194201 0.0225105
-0.216139 0.158718 0.0713468
-0.199733 0.21633 0.113316
-0.190576 0.290729 -0.203739
-0.19401 0.215567 -0.207173
-0.138688 0.310187 -0.230065
-0.129531 0.245708 -0.238459
-0.191339 0.163296 -0.215948
-0.166158 0.158718 -0.229302
-0.131438 0.173979 -0.247234
-0.104731 0.330027 -0.254101
-0.0799313 0.341854 -0.268218
-0.0776421 0.304464 -0.27356
-0.0211751 0.374285 -0.288821
-0.031095 0.285006 -0.290347
-0.076116 0.274704 -0.278138
-0.0764975 0.191911 -0.285387
-0.0127814 0.215567 -0.294926
-0.22644 0.109882 0.0351011
-0.241702 -0.0282335 0.00381534
-0.13678 0.207173 0.214804
-0.163487 0.222434 0.191148
-0.214231 0.122854 0.11942
-0.198207 0.179321 0.160244
-0.200878 0.0877528 0.167875
-0.191721 0.113316 0.186188
-0.193628 0.156047 0.177795
-0.17417 0.138115 0.203739
-0.134491 0.162915 0.22129
-0.189432 0.0694391 0.194201
-0.173789 0.0537963 0.21633
-0.128005 0.0347196 0.245708
-0.0764975 0.204121 0.223197
-0.0165967 0.212133 0.217093
-0.0745899 0.169401 0.22396
-0.013926 0.156429 0.212514
-0.0681038 0.0419687 0.240748
-0.0112552 0.0599008 0.214422
-0.21652 0.0743991 0.0839374
-0.205456 0.039298 0.132392
-0.22148 0.0259443 0.0480733
-0.206982 -0.00953834 0.096528
-0.187905 0.0122091 0.193438
-0.195155 -0.0442579 0.144983
-0.180275 -0.0858451 0.183899
-0.165013 -0.0301412 0.229302
-0.126097 0.000763068 0.250668
-0.218047 -0.0579931 0.0610454
-0.206982 -0.0934758 0.1095
-0.191339 -0.128195 0.157955
-0.0658146 -0.00152614 0.246852
-0.00896604 -0.0267074 0.222816
-0.119992 -0.11942 0.234262
-0.178367 -0.144983 0.181229
-0.176078 -0.188859 0.187333
-0.128005 -0.16406 0.21137
-0.0600916 -0.11446 0.235788
-0.000953834 -0.0881343 0.220145
-0.0570393 -0.165204 0.217856
0.070393 0.847386 0.267074
0.142121 0.959939 0.127432
0.159672 0.925219 0.175887
0.151278 0.911866 0.0915681
0.165776 0.877146 0.140404
0.129531 0.864937 0.254865
0.131438 0.83594 0.260206
0.155475 0.889355 0.22396
0.181801 0.842427 0.188859
0.19401 0.809233 0.238077
0.157001 0.863792 0.0560855
0.160816 0.82831 0.104159
0.167684 0.815719 0.0206028
0.163106 0.780237 0.0686761
0.171881 0.793209 0.152995
0.196299 0.757726 0.199924
0.15662 0.743991 0.117512
0.160816 0.708508 0.165586
0.0745899 0.767264 0.282335
0.0810759 0.642884 0.282335
0.199733 0.688668 0.196108
0.14174 0.714994 -0.056467
0.16921 0.767646 -0.0148798
0.173407 0.732163 0.0331934
0.16921 0.683327 -0.0022892
0.155475 0.695536 0.0812667
0.142121 0.65929 0.129721
0.163487 0.647463 0.0457841
0.145555 0.603968 0.103777
0.125715 0.668447 -0.0866082
0.143266 0.647463 -0.0568485
0.123426 0.619992 -0.122472
0.149752 0.587562 -0.0766883
0.15662 0.634491 -0.0381534
0.179893 0.599771 0.0106829
0.171499 0.563525 0.0587562
0.198207 0.552461 -0.0251812
0.20889 0.508585 0.0167875
0.0890881 0.491034 0.251812
0.0925219 0.426173 0.258298
0.204693 0.58718 0.224342
0.147081 0.534529 0.187333
0.139451 0.574971 0.142694
0.203167 0.602442 0.312858
0.1467 0.554369 0.127432
0.157764 0.52728 0.107211
0.16921 0.492179 0.155666
0.189432 0.480733 0.0717283
0.188287 0.444868 0.119802
0.206982 0.374285 0.217093
0.207364 0.410149 0.168256
0.319153 0.705837 0.18161
0.0967188 0.344525 0.24876
0.0391072 0.419687 -0.269744
0.0925219 0.472339 -0.22625
0.0978634 0.389928 -0.212896
0.123045 0.571156 -0.158337
0.148226 0.537963 -0.104159
0.113125 0.522701 -0.193819
0.131057 0.487982 -0.145364
0.153949 0.453262 -0.0969096
0.185998 0.503243 -0.0610454
0.212705 0.468905 -0.0125906
0.183709 0.418924 -0.0484548
0.117703 0.438382 -0.181229
0.132201 0.403663 -0.132392
0.157001 0.367417 -0.0778329
0.117322 0.354445 -0.168638
0.132965 0.319344 -0.119802
0.202022 0.432659 0.0362457
0.213468 0.454407 0.00763068
0.187524 0.396032 0.084319
0.185998 0.383441 0.000381534
0.171118 0.347196 0.0484548
0.190195 0.360549 0.132392
0.190576 0.325067 0.181229
0.161961 0.306753 0.0938573
0.161198 0.276612 0.143457
0.161198 0.309042 -0.0537963
0.155857 0.285006 -0.0713468
0.160816 0.302556 0.00801221
0.162724 0.271271 -0.00724914
0.163106 0.265929 -0.0446395
0.166158 0.333842 -0.0354826
0.164632 0.243419 -0.0144983
0.147844 0.261732 0.0610454
0.142503 0.225486 0.1095
0.152423 0.213659 0.0251812
0.140977 0.177032 0.073636
0.0459748 0.331171 -0.263258
-0.00705837 0.286913 -0.289203
0.0444487 0.270126 -0.262877
0.100916 0.304082 -0.198779
0.0684853 0.254865 -0.239985
0.105113 0.220908 -0.185044
0.042541 0.212514 -0.265929
0.0856543 0.171309 -0.227013
0.117703 0.270507 -0.155666
0.114651 0.142312 -0.184662
0.143647 0.235788 -0.106829
0.170355 0.206028 -0.0648607
0.128386 0.18657 -0.142694
0.168829 0.153377 -0.0911866
0.166921 0.186952 0.00534147
0.158527 0.12934 0.0381534
0.168829 0.147272 0.0148798
0.171118 0.105303 0.0198398
0.176841 0.166349 -0.00991988
0.190958 0.118657 -0.0454025
0.179893 0.0820298 0.00267074
0.145174 0.103396 -0.129721
0.174933 0.0690576 -0.0831744
0.18409 0.0339565 -0.0328119
0.103205 0.230446 0.200687
0.103205 0.107593 0.165204
0.134109 0.141167 0.122091
0.0543686 -0.0743991 0.185044
0.0974819 -0.0289966 0.147272
0.112743 0.0492179 0.143457
0.110836 0.079359 0.152232
0.116177 -0.0129721 0.126669
0.119229 -0.0724914 0.120946
0.0833651 -0.114079 0.159863
0.142121 0.0927127 0.0866082
0.118848 0.056467 0.134681
0.158909 0.0454025 0.050744
0.172644 0.0660053 0.0240366
0.134109 0.00877528 0.0991988
0.174933 0.00267074 0.00839374
0.153567 -0.039298 0.0637161
