ply
format ascii 1.0
comment generated by io_xyz.hpp
element vertex 202
property float x
property float y
property float z
end_header
-0.0891 -0.5376 0.0018
-0.0894 -0.5326 0.0018
-0.0897 -0.5276 0.0018
-0.0900 -0.5226 0.0017
-0.0903 -0.5177 0.0017
-0.0906 -0.5127 0.0017
-0.0909 -0.5078 0.0017
-0.0911 -0.5030 0.0017
-0.0914 -0.4981 0.0017
-0.0916 -0.4933 0.0017
-0.0918 -0.4885 0.0017
-0.0920 -0.4838 0.0017
-0.0922 -0.4790 0.0017
-0.0924 -0.4743 0.0017
-0.0926 -0.4696 0.0017
-0.0927 -0.4649 0.0017
-0.0929 -0.4602 0.0016
-0.0930 -0.4556 0.0016
-0.0931 -0.4510 0.0016
-0.0932 -0.4464 0.0016
-0.0933 -0.4418 0.0016
-0.0934 -0.4373 0.0016
-0.0935 -0.4328 0.0016
-0.0936 -0.4283 0.0016
-0.0936 -0.4238 0.0016
-0.0936 -0.4193 0.0016
-0.0937 -0.4149 0.0015
-0.0937 -0.4104 0.0015
-0.0937 -0.4060 0.0015
-0.0937 -0.4017 0.0015
-0.0936 -0.3973 0.0015
-0.0936 -0.3929 0.0015
-0.0936 -0.3886 0.0015
-0.0935 -0.3843 0.0015
-0.0934 -0.3800 0.0015
-0.0933 -0.3757 0.0014
-0.0932 -0.3715 0.0014
-0.0931 -0.3672 0.0014
-0.0930 -0.3630 0.0014
-0.0929 -0.3588 0.0014
-0.0927 -0.3546 0.0014
-0.0925 -0.3504 0.0014
-0.0924 -0.3463 0.0014
-0.0922 -0.3422 0.0013
-0.0920 -0.3380 0.0013
-0.0918 -0.3339 0.0013
-0.0915 -0.3298 0.0013
-0.0913 -0.3257 0.0013
-0.0910 -0.3217 0.0013
-0.0908 -0.3176 0.0013
-0.0905 -0.3136 0.0013
-0.0902 -0.3096 0.0012
-0.0899 -0.3056 0.0012
-0.0896 -0.3016 0.0012
-0.0893 -0.2976 0.0012
-0.0889 -0.2936 0.0012
-0.0886 -0.2897 0.0012
-0.0882 -0.2857 0.0012
-0.0878 -0.2818 0.0012
-0.0874 -0.2779 0.0011
-0.0870 -0.2740 0.0011
-0.0866 -0.2701 0.0011
-0.0861 -0.2662 0.0011
-0.0857 -0.2623 0.0011
-0.0852 -0.2585 0.0011
-0.0848 -0.2546 0.0011
-0.0843 -0.2508 0.0010
-0.0838 -0.2469 0.0010
-0.0832 -0.2431 0.0010
-0.0827 -0.2393 0.0010
-0.0822 -0.2355 0.0010
-0.0816 -0.2317 0.0010
-0.0811 -0.2279 0.0010
-0.0805 -0.2241 0.0010
-0.0799 -0.2204 0.0009
-0.0793 -0.2166 0.0009
-0.0786 -0.2129 0.0009
-0.0780 -0.2091 0.0009
-0.0774 -0.2054 0.0009
-0.0767 -0.2016 0.0009
-0.0760 -0.1979 0.0009
-0.0753 -0.1942 0.0008
-0.0746 -0.1905 0.0008
-0.0739 -0.1868 0.0008
-0.0732 -0.1831 0.0008
-0.0724 -0.1794 0.0008
-0.0717 -0.1757 0.0008
-0.0709 -0.1720 0.0008
-0.0701 -0.1683 0.0008
-0.0693 -0.1647 0.0007
-0.0685 -0.1610 0.0007
-0.0676 -0.1573 0.0007
-0.0668 -0.1537 0.0007
-0.0659 -0.1500 0.0007
-0.0651 -0.1464 0.0007
-0.0642 -0.1427 0.0007
-0.0633 -0.1391 0.0006
-0.0624 -0.1354 0.0006
-0.0615 -0.1318 0.0006
-0.0605 -0.1281 0.0006
-0.0596 -0.1245 0.0006
-0.0586 -0.1209 0.0006
-0.0576 -0.1172 0.0006
-0.0566 -0.1136 0.0006
-0.0556 -0.1100 0.0005
-0.0546 -0.1063 0.0005
-0.0535 -0.1027 0.0005
-0.0525 -0.0991 0.0005
-0.0514 -0.0955 0.0005
-0.0503 -0.0918 0.0005
-0.0492 -0.0882 0.0005
-0.0481 -0.0846 0.0005
-0.0470 -0.0809 0.0004
-0.0458 -0.0773 0.0004
-0.0447 -0.0737 0.0004
-0.0435 -0.0700 0.0004
-0.0423 -0.0664 0.0004
-0.0411 -0.0627 0.0004
-0.0399 -0.0591 0.0004
-0.0387 -0.0554 0.0004
-0.0374 -0.0518 0.0004
-0.0362 -0.0481 0.0003
-0.0349 -0.0445 0.0003
-0.0336 -0.0408 0.0003
-0.0323 -0.0372 0.0003
-0.0310 -0.0335 0.0003
-0.0297 -0.0298 0.0003
-0.0283 -0.0261 0.0003
-0.0270 -0.0225 0.0003
-0.0256 -0.0188 0.0003
-0.0242 -0.0151 0.0002
-0.0228 -0.0114 0.0002
-0.0214 -0.0077 0.0002
-0.0200 -0.0040 0.0002
-0.0185 -0.0003 0.0002
-0.0170 0.0035 0.0002
-0.0156 0.0072 0.0002
-0.0141 0.0109 0.0002
-0.0126 0.0147 0.0002
-0.0110 0.0184 0.0002
-0.0095 0.0222 0.0001
-0.0079 0.0260 0.0001
-0.0064 0.0297 0.0001
-0.0048 0.0335 0.0001
-0.0032 0.0373 0.0001
-0.0016 0.0411 0.0001
0.0001 0.0449 0.0001
0.0017 0.0487 0.0001
0.0034 0.0526 0.0001
0.0050 0.0564 0.0001
0.0067 0.0603 0.0001
0.0084 0.0641 0.0001
0.0102 0.0680 0.0001
0.0119 0.0719 0.0001
0.0137 0.0758 0.0000
0.0154 0.0797 0.0000
0.0172 0.0836 0.0000
0.0190 0.0875 0.0000
0.0208 0.0915 0.0000
0.0227 0.0954 0.0000
0.0245 0.0994 0.0000
0.0264 0.1034 0.0000
0.0282 0.1074 0.0000
0.0301 0.1114 -0.0000
0.0320 0.1154 -0.0000
0.0340 0.1194 -0.0000
0.0359 0.1235 -0.0000
0.0379 0.1276 -0.0000
0.0398 0.1316 -0.0000
0.0418 0.1357 -0.0000
0.0438 0.1398 -0.0000
0.0458 0.1440 -0.0000
0.0479 0.1481 -0.0000
0.0499 0.1523 -0.0000
0.0520 0.1564 -0.0000
0.0541 0.1606 -0.0000
0.0562 0.1648 -0.0000
0.0583 0.1690 -0.0000
0.0604 0.1733 -0.0000
0.0626 0.1775 -0.0000
0.0647 0.1818 -0.0000
0.0669 0.1861 -0.0000
0.0691 0.1904 -0.0000
0.0713 0.1947 -0.0000
0.0735 0.1991 -0.0000
0.0758 0.2035 -0.0000
0.0780 0.2078 -0.0000
0.0803 0.2122 -0.0000
0.0826 0.2167 -0.0000
0.0849 0.2211 -0.0000
0.0872 0.2256 -0.0000
0.0896 0.2301 -0.0000
0.0919 0.2346 -0.0000
0.0943 0.2391 -0.0000
0.0967 0.2436 -0.0000
0.0991 0.2482 -0.0000
0.1015 0.2528 -0.0000
0.1040 0.2574 -0.0000
0.1064 0.2620 -0.0000
0.1089 0.2667 -0.0000
0.1114 0.2714 -0.0000
0.1139 0.2761 0.0000
