-0.0891 -0.5376 0.0018
-0.0893 -0.5342 0.0018
-0.0895 -0.5308 0.0018
-0.0897 -0.5274 0.0018
-0.0898 -0.5240 0.0017
-0.0900 -0.5205 0.0017
-0.0901 -0.5170 0.0017
-0.0902 -0.5135 0.0017
-0.0903 -0.5100 0.0017
-0.0904 -0.5065 0.0017
-0.0904 -0.5029 0.0017
-0.0904 -0.4993 0.0017
-0.0905 -0.4957 0.0017
-0.0905 -0.4921 0.0017
-0.0905 -0.4885 0.0017
-0.0904 -0.4848 0.0017
-0.0904 -0.4811 0.0017
-0.0903 -0.4774 0.0017
-0.0902 -0.4737 0.0017
-0.0902 -0.4700 0.0016
-0.0900 -0.4662 0.0016
-0.0899 -0.4625 0.0016
-0.0898 -0.4587 0.0016
-0.0896 -0.4549 0.0016
-0.0894 -0.4510 0.0016
-0.0892 -0.4472 0.0016
-0.0890 -0.4433 0.0016
-0.0888 -0.4395 0.0016
-0.0886 -0.4356 0.0016
-0.0883 -0.4317 0.0016
-0.0881 -0.4277 0.0016
-0.0878 -0.4238 0.0015
-0.0875 -0.4198 0.0015
-0.0872 -0.4159 0.0015
-0.0868 -0.4119 0.0015
-0.0865 -0.4079 0.0015
-0.0861 -0.4039 0.0015
-0.0857 -0.3998 0.0015
-0.0854 -0.3958 0.0015
-0.0849 -0.3917 0.0015
-0.0845 -0.3877 0.0015
-0.0841 -0.3836 0.0014
-0.0836 -0.3795 0.0014
-0.0832 -0.3754 0.0014
-0.0827 -0.3712 0.0014
-0.0822 -0.3671 0.0014
-0.0817 -0.3630 0.0014
-0.0812 -0.3588 0.0014
-0.0807 -0.3546 0.0014
-0.0801 -0.3505 0.0014
-0.0796 -0.3463 0.0013
-0.0790 -0.3421 0.0013
-0.0784 -0.3378 0.0013
-0.0778 -0.3336 0.0013
-0.0772 -0.3294 0.0013
-0.0765 -0.3251 0.0013
-0.0759 -0.3209 0.0013
-0.0752 -0.3166 0.0013
-0.0746 -0.3123 0.0012
-0.0739 -0.3081 0.0012
-0.0732 -0.3038 0.0012
-0.0725 -0.2995 0.0012
-0.0718 -0.2952 0.0012
-0.0710 -0.2908 0.0012
-0.0703 -0.2865 0.0012
-0.0695 -0.2822 0.0012
-0.0688 -0.2778 0.0011
-0.0680 -0.2735 0.0011
-0.0672 -0.2691 0.0011
-0.0664 -0.2648 0.0011
-0.0656 -0.2604 0.0011
-0.0647 -0.2560 0.0011
-0.0639 -0.2517 0.0011
-0.0630 -0.2473 0.0010
-0.0622 -0.2429 0.0010
-0.0613 -0.2385 0.0010
-0.0604 -0.2341 0.0010
-0.0595 -0.2297 0.0010
-0.0586 -0.2253 0.0010
-0.0577 -0.2209 0.0010
-0.0567 -0.2164 0.0010
-0.0558 -0.2120 0.0009
-0.0548 -0.2076 0.0009
-0.0539 -0.2032 0.0009
-0.0529 -0.1987 0.0009
-0.0519 -0.1943 0.0009
-0.0509 -0.1899 0.0009
-0.0499 -0.1854 0.0009
-0.0489 -0.1810 0.0009
-0.0478 -0.1765 0.0008
-0.0468 -0.1721 0.0008
-0.0457 -0.1677 0.0008
-0.0447 -0.1632 0.0008
-0.0436 -0.1588 0.0008
-0.0425 -0.1543 0.0008
-0.0414 -0.1499 0.0008
-0.0403 -0.1454 0.0007
-0.0392 -0.1410 0.0007
-0.0381 -0.1365 0.0007
-0.0370 -0.1321 0.0007
-0.0358 -0.1276 0.0007
-0.0347 -0.1232 0.0007
-0.0335 -0.1187 0.0007
-0.0323 -0.1143 0.0007
-0.0312 -0.1098 0.0006
-0.0300 -0.1054 0.0006
-0.0288 -0.1009 0.0006
-0.0276 -0.0965 0.0006
-0.0264 -0.0921 0.0006
-0.0251 -0.0876 0.0006
-0.0239 -0.0832 0.0006
-0.0227 -0.0788 0.0006
-0.0214 -0.0744 0.0005
-0.0202 -0.0699 0.0005
-0.0189 -0.0655 0.0005
-0.0176 -0.0611 0.0005
-0.0163 -0.0567 0.0005
-0.0150 -0.0523 0.0005
-0.0137 -0.0479 0.0005
-0.0124 -0.0435 0.0005
-0.0111 -0.0391 0.0004
-0.0098 -0.0348 0.0004
-0.0085 -0.0304 0.0004
-0.0071 -0.0260 0.0004
-0.0058 -0.0217 0.0004
-0.0044 -0.0173 0.0004
-0.0031 -0.0130 0.0004
-0.0017 -0.0086 0.0004
-0.0003 -0.0043 0.0004
0.0011 0.0000 0.0003
0.0025 0.0043 0.0003
0.0039 0.0087 0.0003
0.0053 0.0130 0.0003
0.0067 0.0173 0.0003
0.0081 0.0215 0.0003
0.0095 0.0258 0.0003
0.0109 0.0301 0.0003
0.0124 0.0343 0.0003
0.0138 0.0386 0.0002
0.0153 0.0428 0.0002
0.0167 0.0470 0.0002
0.0182 0.0513 0.0002
0.0196 0.0555 0.0002
0.0211 0.0597 0.0002
0.0226 0.0638 0.0002
0.0241 0.0680 0.0002
0.0256 0.0722 0.0002
0.0271 0.0763 0.0002
0.0286 0.0804 0.0002
0.0301 0.0846 0.0001
0.0316 0.0887 0.0001
0.0331 0.0928 0.0001
0.0346 0.0969 0.0001
0.0362 0.1009 0.0001
0.0377 0.1050 0.0001
0.0392 0.1090 0.0001
0.0408 0.1131 0.0001
0.0423 0.1171 0.0001
0.0439 0.1211 0.0001
0.0454 0.1251 0.0001
0.0470 0.1290 0.0001
0.0486 0.1330 0.0001
0.0501 0.1369 0.0001
0.0517 0.1409 0.0001
0.0533 0.1448 0.0000
0.0549 0.1487 0.0000
0.0565 0.1525 0.0000
0.0580 0.1564 0.0000
0.0596 0.1602 0.0000
0.0612 0.1641 0.0000
0.0628 0.1679 0.0000
0.0644 0.1717 0.0000
0.0661 0.1754 0.0000
0.0677 0.1792 0.0000
0.0693 0.1829 0.0000
0.0709 0.1867 -0.0000
0.0725 0.1904 -0.0000
0.0742 0.1940 -0.0000
0.0758 0.1977 -0.0000
0.0774 0.2013 -0.0000
0.0790 0.2050 -0.0000
0.0807 0.2086 -0.0000
0.0823 0.2121 -0.0000
0.0840 0.2157 -0.0000
0.0856 0.2193 -0.0000
0.0873 0.2228 -0.0000
0.0889 0.2263 -0.0000
0.0906 0.2297 -0.0000
0.0922 0.2332 -0.0000
0.0939 0.2366 -0.0000
0.0955 0.2401 -0.0000
0.0972 0.2434 -0.0000
0.0988 0.2468 -0.0000
0.1005 0.2502 -0.0000
0.1022 0.2535 -0.0000
0.1038 0.2568 -0.0000
0.1055 0.2600 -0.0000
0.1072 0.2633 -0.0000
0.1088 0.2665 -0.0000
0.1105 0.2697 -0.0000
0.1122 0.2729 -0.0000
0.1139 0.2761 0.0000
