ply
format ascii 1.0
comment written by export_pc_in_blender.py
element vertex 715
property float x
property float y
property float z
end_header
-0.2944 0.1473 -0.1251
-0.2386 0.1990 -0.1790
-0.1238 0.2501 0.1304
-0.0689 0.2879 0.1533
-0.0097 0.2976 0.1722
-0.1753 0.2340 -0.1314
-0.1997 0.2253 -0.2170
-0.1715 0.2377 -0.2053
-0.1162 0.2525 -0.1121
-0.1139 0.2571 -0.1569
-0.1120 0.2581 -0.1851
0.0040 0.2917 -0.1001
-0.0563 0.2731 -0.1729
0.0067 0.2882 -0.1534
-0.1700 0.2396 -0.2330
-0.1040 0.2596 -0.2591
-0.0479 0.2733 -0.2584
0.0086 0.2857 -0.1875
0.0109 0.2843 -0.2343
0.0132 0.2843 -0.2804
-0.2783 0.0653 -0.1193
-0.2528 0.0187 -0.1565
-0.2390 -0.0140 -0.1089
-0.2779 0.1036 -0.1658
-0.2577 0.0569 -0.2030
-0.2417 -0.0280 -0.1936
-0.2364 -0.0467 -0.1701
-0.2360 -0.0810 -0.2234
-0.2463 0.0104 -0.2409
-0.2448 -0.0363 -0.2784
-0.2657 0.1414 -0.2117
-0.2566 0.0952 -0.2496
-0.2459 0.1793 -0.2575
-0.2303 0.2009 -0.2392
-0.2535 0.1331 -0.2958
-0.2482 0.0487 -0.2871
-0.2474 0.0016 -0.3250
-0.2516 0.0865 -0.3340
-0.2497 0.0400 -0.3723
-0.2394 -0.0828 -0.3163
-0.2226 -0.1203 -0.3462
-0.2474 -0.0446 -0.3632
-0.2303 -0.1013 -0.3880
-0.2512 -0.0067 -0.4099
-0.2444 -0.0528 -0.4482
-0.2215 -0.1021 -0.4865
-0.2280 0.2004 -0.2825
-0.2432 0.1710 -0.3419
-0.2264 0.1981 -0.3188
-0.2177 0.2053 -0.3865
-0.2554 0.1248 -0.3806
-0.2551 0.0782 -0.4190
-0.2547 0.1627 -0.4276
-0.2638 0.1165 -0.4659
-0.2230 0.2104 -0.4790
-0.2680 0.1545 -0.5128
-0.2505 0.1923 -0.5586
-0.2150 0.2193 -0.5339
-0.2551 0.0317 -0.4572
-0.2512 -0.0150 -0.4951
-0.2638 0.0696 -0.5042
-0.2615 0.0234 -0.5420
-0.2341 -0.0615 -0.5318
-0.2142 -0.0963 -0.5764
-0.2478 -0.0233 -0.5795
-0.2230 -0.0703 -0.6160
-0.2863 0.0996 -0.6364
-0.2753 0.0564 -0.5836
-0.2753 0.1123 -0.5566
-0.2737 0.1517 -0.6013
-0.2882 0.0531 -0.6747
-0.2699 0.0196 -0.6328
-0.2734 0.0363 -0.6097
-0.2692 -0.0026 -0.7146
-0.2440 -0.0319 -0.6641
-0.2283 -0.0662 -0.1467
-0.2203 -0.1125 -0.1842
-0.1726 -0.1739 -0.3049
-0.1936 -0.1595 -0.2209
-0.1742 -0.1775 -0.2344
-0.1120 -0.1900 -0.2752
-0.1139 -0.1909 -0.2424
-0.1616 -0.1733 -0.3859
-0.1097 -0.1890 -0.3179
-0.1070 -0.1897 -0.3706
-0.1059 -0.1903 -0.3967
-0.1879 -0.1465 -0.5213
-0.1032 -0.1976 -0.4558
-0.0521 -0.1881 -0.2751
-0.0536 -0.1900 -0.2378
0.0086 -0.1796 -0.2831
-0.0002 -0.1924 -0.1817
-0.0460 -0.1912 -0.3936
0.0139 -0.1848 -0.3849
-0.0433 -0.2002 -0.4499
0.0170 -0.1999 -0.4476
-0.2074 0.2170 -0.3019
-0.1677 0.2405 -0.2807
-0.1643 0.2402 -0.3438
-0.1089 0.2575 -0.3453
-0.1532 0.2443 -0.4299
-0.1002 0.2603 -0.4158
-0.0986 0.2619 -0.4478
-0.1612 0.2438 -0.5194
-0.0963 0.2645 -0.4901
-0.0448 0.2751 -0.3229
0.0147 0.2852 -0.3110
-0.0422 0.2774 -0.3695
-0.0410 0.2785 -0.3973
-0.0322 0.2807 -0.4712
0.0185 0.2888 -0.3830
0.0231 0.2882 -0.4690
-0.2020 0.2251 -0.6013
-0.2833 0.1375 -0.6830
-0.2692 0.1625 -0.6618
-0.2638 0.1711 -0.7282
-0.2509 0.1840 -0.6432
-0.2016 0.2187 -0.6865
-0.2985 0.0914 -0.7216
-0.2966 0.0448 -0.7599
-0.2993 0.1292 -0.7682
-0.3096 0.0831 -0.8068
-0.2058 0.2175 -0.7747
-0.2844 0.1675 -0.8139
-0.2619 0.1828 -0.7998
-0.3104 0.1211 -0.8537
-0.2539 0.1955 -0.8535
-0.2924 0.1588 -0.8992
-0.1994 0.2268 -0.8385
-0.2448 0.1917 -0.9430
-0.1971 0.2264 -0.8828
-0.1952 0.2203 -0.9209
-0.1932 0.2124 -0.9606
-0.1520 0.2498 -0.5837
-0.1494 0.2523 -0.6278
-0.0815 0.2725 -0.5573
-0.0944 0.2709 -0.6460
-0.0326 0.2832 -0.5575
-0.0292 0.2840 -0.6255
0.0273 0.2849 -0.5543
0.0307 0.2816 -0.6240
-0.0273 0.2831 -0.6611
0.0322 0.2797 -0.6539
-0.1482 0.2532 -0.6580
-0.1341 0.2556 -0.7296
-0.1425 0.2520 -0.8161
-0.0841 0.2698 -0.7297
-0.0807 0.2664 -0.7986
-0.0250 0.2808 -0.7054
-0.0231 0.2781 -0.7495
-0.0208 0.2729 -0.7895
0.0349 0.2748 -0.7069
0.0368 0.2714 -0.7392
0.0486 0.2527 -0.8054
-0.0792 0.2654 -0.8316
-0.1414 0.2473 -0.9024
-0.0769 0.2640 -0.8782
-0.0742 0.2611 -0.9207
-0.0727 0.2575 -0.9611
-0.0189 0.2669 -0.8307
-0.0166 0.2624 -0.8760
-0.0143 0.2598 -0.9167
-0.0124 0.2585 -0.9564
0.0448 0.2406 -0.8905
0.0513 0.2722 0.1472
0.0742 0.2567 0.1357
0.1135 0.2092 0.0997
0.0715 0.2756 -0.1678
0.1150 0.2309 -0.1162
0.1257 0.2048 -0.1367
0.1272 0.2142 -0.2004
0.1417 0.1456 -0.1064
0.1337 0.1843 -0.1533
0.0822 0.2668 -0.2504
0.1665 0.0611 -0.0966
0.1715 0.0144 -0.1341
0.1581 0.0990 -0.1436
0.1719 0.0524 -0.1807
0.1478 -0.0699 -0.1273
0.1654 -0.0317 -0.1727
0.1215 -0.1077 -0.1656
0.1459 -0.0782 -0.2119
0.1780 0.0061 -0.2186
0.1765 -0.0404 -0.2569
0.1517 0.1373 -0.1906
0.1723 0.0903 -0.2273
0.1478 0.1756 -0.2371
0.1704 0.1289 -0.2742
0.1910 0.0506 -0.2733
0.1910 -0.0225 -0.2789
0.1936 0.0828 -0.3117
0.2020 -0.0025 -0.3023
0.2123 0.0354 -0.3486
0.1383 -0.1389 -0.3349
0.0631 -0.1762 -0.3749
0.0780 -0.1982 -0.4601
0.1349 -0.1617 -0.3952
0.1066 -0.1879 -0.4592
0.1375 -0.1692 -0.4426
0.1436 -0.1640 -0.4943
0.1681 -0.0870 -0.2955
0.1925 -0.0675 -0.3186
0.1948 -0.0914 -0.3809
0.2051 -0.0492 -0.3402
0.2184 -0.0113 -0.3861
0.2093 -0.0575 -0.4247
0.1948 -0.0952 -0.4564
0.0754 0.2737 -0.3169
0.1345 0.2151 -0.2847
0.1070 0.2522 -0.3325
0.1375 0.2122 -0.3701
0.0776 0.2763 -0.3630
0.0792 0.2767 -0.3916
0.0700 0.2766 -0.4653
0.1154 0.2436 -0.4167
0.1425 0.1973 -0.4538
0.1131 0.2349 -0.5015
0.1444 0.1830 -0.5393
0.1620 0.1668 -0.3212
0.1852 0.1203 -0.3579
0.1971 0.0949 -0.3784
0.1673 0.1585 -0.4057
0.1986 0.0887 -0.4142
0.1883 0.1116 -0.4428
0.2051 0.0732 -0.3955
0.1662 0.1499 -0.4905
0.2020 0.0653 -0.4803
0.2142 0.0266 -0.4330
0.2093 -0.0196 -0.4713
0.2035 0.0143 -0.5218
0.1780 -0.1122 -0.5489
0.1997 -0.0584 -0.5034
0.1994 -0.0278 -0.5565
0.1978 -0.0744 -0.5947
0.1883 0.1032 -0.5273
0.1971 0.0567 -0.5651
0.1707 0.1412 -0.5751
0.1898 0.0945 -0.6118
0.1986 0.0101 -0.6031
0.2089 -0.0368 -0.6414
0.1959 0.0484 -0.6497
0.2108 -0.0005 -0.6888
0.0864 0.2602 -0.5335
0.0616 0.2736 -0.5507
0.0879 0.2556 -0.5638
0.0902 0.2498 -0.6150
0.0666 0.2653 -0.6351
0.1124 0.2266 -0.5863
0.0921 0.2470 -0.6487
0.1498 0.1780 -0.6229
0.1200 0.2183 -0.6705
0.1543 0.1766 -0.7077
0.0948 0.2419 -0.7005
0.0708 0.2567 -0.7197
0.0963 0.2371 -0.7340
0.0982 0.2275 -0.7773
0.1234 0.2095 -0.7549
0.1036 0.2060 -0.8422
0.1581 0.1607 -0.7922
0.1665 0.1224 -0.8366
0.1372 0.1547 -0.8773
0.1803 0.1329 -0.6591
0.1932 0.0862 -0.6966
0.2032 0.0397 -0.7337
0.1849 0.1246 -0.7436
0.1929 0.0780 -0.7814
0.1036 0.1863 -0.9276
-0.2131 -0.0930 -0.6339
-0.2180 -0.0786 -0.7004
-0.2108 -0.0957 -0.6799
-0.2089 -0.0998 -0.7176
-0.2432 -0.0402 -0.7485
-0.2154 -0.0869 -0.7849
-0.2066 -0.1044 -0.7633
-0.2047 -0.1089 -0.8025
-0.1543 -0.1846 -0.5622
-0.0971 -0.2154 -0.5722
-0.0372 -0.2188 -0.5716
0.0208 -0.2139 -0.5263
0.0185 -0.2063 -0.4800
0.0231 -0.2135 -0.5637
-0.1807 -0.1552 -0.6054
-0.1539 -0.1883 -0.6312
-0.2005 -0.1169 -0.6531
-0.1715 -0.1636 -0.6895
-0.1524 -0.1880 -0.6594
-0.1379 -0.2023 -0.6414
-0.0944 -0.2187 -0.6193
-0.1501 -0.1856 -0.7066
-0.0906 -0.2115 -0.7240
-0.1944 -0.1252 -0.7376
-0.1486 -0.1795 -0.7739
-0.1955 -0.1245 -0.8338
-0.1463 -0.1955 -0.8638
-0.0853 -0.2152 -0.8086
-0.0345 -0.2188 -0.6166
0.0246 -0.1995 -0.6363
0.0311 -0.1964 -0.7194
0.0349 -0.2090 -0.8022
-0.2661 -0.0128 -0.7987
-0.2924 0.0364 -0.8439
-0.2600 -0.0132 -0.8812
-0.2390 -0.0485 -0.8330
-0.2131 -0.0955 -0.8698
-0.2005 -0.1438 -0.9055
-0.2345 -0.0572 -0.9175
-0.2242 -0.1042 -0.9550
-0.3024 0.0748 -0.8909
-0.2772 0.0277 -0.9281
-0.3005 0.1127 -0.9375
-0.2852 0.0661 -0.9750
-0.2554 -0.0112 -0.9652
-0.2272 -0.1504 -0.9933
-0.1978 -0.1840 -0.9419
0.0822 -0.1946 -0.5467
0.0857 -0.1758 -0.6064
0.0868 -0.1607 -0.6797
0.1173 -0.1583 -0.5903
0.1448 -0.1430 -0.5757
0.1467 -0.1393 -0.6122
0.1482 -0.1381 -0.6496
0.1517 -0.1426 -0.7179
0.0899 -0.1673 -0.7646
0.0967 -0.1796 -0.8465
0.1562 -0.1467 -0.8025
0.1715 -0.1205 -0.6341
0.2139 -0.0901 -0.6700
0.1791 -0.1293 -0.7183
0.2112 -0.1051 -0.6968
0.2131 -0.1114 -0.7384
0.2299 -0.0448 -0.7243
0.2291 -0.0914 -0.7626
0.2154 -0.1112 -0.7793
0.1608 -0.1503 -0.8898
0.1597 0.1031 -0.9081
0.1669 -0.0749 -0.9891
0.1673 0.0225 -0.9833
0.2177 -0.0035 -0.7711
0.2013 0.0314 -0.8190
0.2196 -0.0609 -0.8214
0.2047 -0.0153 -0.8565
0.2016 -0.0997 -0.8482
0.1929 -0.0618 -0.8952
0.1742 -0.1079 -0.9346
0.1814 0.0697 -0.8667
0.1856 0.0231 -0.9042
0.1662 0.0619 -0.9519
0.1799 -0.0234 -0.9429
0.1005 -0.2138 -0.9029
0.1398 -0.1919 -0.9278
0.1631 -0.1475 -0.9679
0.1559 -0.2006 -1.0115
0.1250 0.1464 -0.9625
-0.2936 -0.0041 0.9950
-0.2936 -0.0649 0.9980
-0.2940 -0.0421 0.9476
-0.1757 0.1784 0.9840
-0.2303 -0.1128 0.9631
-0.2524 -0.0872 0.9239
-0.2375 0.0945 0.9958
-0.2619 0.0435 0.9527
-0.2493 0.0818 0.9069
-0.2306 0.1214 0.9479
-0.2837 -0.0022 0.9137
-0.2722 -0.0488 0.8762
-0.2711 0.0353 0.8675
-0.2760 -0.0109 0.8292
-0.1116 0.2126 0.9426
-0.0509 0.2270 0.9601
-0.0490 0.2304 0.9225
-0.2425 0.1197 0.8607
-0.2283 0.1439 0.8811
-0.2325 0.1638 0.8198
-0.2066 0.1658 0.9005
-0.1696 0.1859 0.9190
-0.1608 0.2013 0.8568
-0.2634 0.0731 0.8213
-0.2772 0.0271 0.7826
-0.2615 0.1118 0.7751
-0.2779 0.0653 0.7361
-0.2165 0.1931 0.7697
-0.1623 0.2114 0.7848
-0.1604 0.2145 0.7475
-0.2577 0.1498 0.7286
-0.2783 0.1028 0.6890
-0.2184 0.1879 0.6830
-0.2707 0.1334 0.6367
-0.1585 0.2149 0.7100
-0.1066 0.2211 0.8739
-0.0471 0.2348 0.8887
-0.0910 0.2370 0.8147
-0.1028 0.2358 0.7264
-0.0429 0.2467 0.8137
-0.0395 0.2519 0.7475
-0.2165 0.1836 0.5965
-0.1551 0.2103 0.6429
-0.1456 0.2116 0.5556
-0.0380 0.2521 0.7066
-0.0998 0.2291 0.6409
-0.0910 0.2307 0.5714
-0.0357 0.2503 0.6683
-0.0326 0.2528 0.6027
-0.0895 0.2344 0.5361
-0.0410 0.2573 0.5139
0.0746 0.1784 1.0054
0.1482 -0.0912 0.9443
0.1253 0.0345 0.9732
0.1009 0.1248 0.9630
0.1124 0.0779 0.9255
0.1333 0.0387 0.8844
0.1589 -0.0072 0.9363
0.1604 -0.0533 0.8982
0.1604 -0.0154 0.8515
0.0093 0.2212 0.9591
0.0109 0.2246 0.9321
0.0681 0.1898 0.9769
0.0441 0.2098 0.9512
0.0128 0.2302 0.8885
0.0704 0.1944 0.9401
0.0761 0.2030 0.8679
0.0166 0.2395 0.8190
0.0208 0.2463 0.7468
0.0776 0.2111 0.7989
0.0795 0.2151 0.7563
0.0601 0.2311 0.7365
0.0818 0.2138 0.7234
0.0967 0.1631 0.9160
0.1112 0.1165 0.8789
0.1089 0.1544 0.8319
0.1223 0.0695 0.8409
0.1402 0.0294 0.8041
0.1150 0.1078 0.7944
0.1211 0.0612 0.7565
0.0979 0.1927 0.7849
0.1127 0.1461 0.7474
0.1135 0.0992 0.7095
0.1013 0.1840 0.7005
0.1131 0.1374 0.6629
0.0223 0.2482 0.7136
0.0242 0.2467 0.6693
0.0277 0.2488 0.6067
0.0837 0.2061 0.6725
0.0658 0.2227 0.6520
0.0860 0.2004 0.6352
0.0864 0.2041 0.5674
0.0322 0.2529 0.5187
0.1032 0.1757 0.6156
-0.1398 -0.2113 0.9844
-0.1162 -0.2312 0.9697
-0.0822 -0.2584 0.9492
-0.0532 -0.2828 0.9101
0.0666 -0.3242 0.9042
0.1250 -0.2992 0.9173
-0.2825 0.0570 0.6508
-0.2791 0.0363 0.6761
-0.2768 0.0339 0.6324
-0.2852 0.0949 0.6042
-0.2764 0.0399 0.5598
-0.2745 0.0316 0.5873
-0.2322 -0.1059 0.9096
-0.1688 -0.1667 0.9343
-0.1932 -0.1342 0.8882
-0.1704 -0.1571 0.8714
-0.2272 -0.0899 0.8363
-0.2455 -0.0576 0.7925
-0.2253 -0.0799 0.7756
-0.1677 -0.1475 0.8050
-0.1952 -0.1046 0.7569
-0.1623 -0.1482 0.7195
-0.1143 -0.2280 0.8992
-0.1486 -0.1813 0.8530
-0.1288 -0.2279 0.8155
-0.1097 -0.2487 0.8415
-0.1135 -0.2807 0.7849
-0.0841 -0.2667 0.8647
-0.0494 -0.2977 0.8291
-0.1440 -0.1900 0.7685
-0.1410 -0.2362 0.7306
-0.1532 -0.1983 0.6833
-0.0452 -0.3206 0.7451
-0.1089 -0.2916 0.6094
-0.0410 -0.3263 0.6543
-0.1456 -0.2445 0.6454
-0.0376 -0.3211 0.5899
-0.2627 -0.0196 0.7455
-0.2211 -0.0643 0.7080
-0.2741 0.0188 0.6978
-0.2432 -0.0280 0.6614
-0.2119 -0.0665 0.6319
-0.1841 -0.1134 0.6731
-0.1684 -0.1599 0.6356
-0.1601 -0.1804 0.6613
-0.1841 -0.1217 0.5886
-0.2634 0.0104 0.6137
-0.2261 -0.0366 0.5781
-0.2158 -0.0574 0.6030
-0.2139 -0.0562 0.5626
-0.2474 0.0017 0.5300
-0.2108 -0.0514 0.4925
-0.1971 -0.0833 0.5409
-0.1555 -0.2011 0.5975
-0.1673 -0.1682 0.5511
-0.1528 -0.1970 0.5011
-0.1795 -0.1303 0.5037
-0.1910 -0.0920 0.4568
-0.1738 -0.1386 0.4197
-0.1494 -0.1944 0.3752
-0.1250 -0.2532 0.5621
-0.0307 -0.2831 0.4654
-0.1181 -0.2323 0.3461
-0.0273 -0.2733 0.3998
-0.0235 -0.2604 0.3287
-0.2722 0.1340 0.5577
-0.2886 0.0866 0.5198
-0.2696 0.1312 0.4705
-0.2688 0.0490 0.4796
-0.2764 0.0780 0.4356
-0.2657 0.0548 0.4169
-0.2650 0.1257 0.3827
-0.2631 0.0571 0.3487
-0.2776 0.1076 0.3039
-0.2520 0.1474 0.3383
-0.2589 0.0459 0.2850
-0.2676 0.0609 0.2667
-0.2570 0.0397 0.2495
-0.2650 0.1509 0.2625
-0.2894 0.0993 0.2190
-0.2703 0.0526 0.1818
-0.2551 0.0335 0.2061
-0.3008 0.1376 0.1716
-0.2448 0.1801 0.2143
-0.2985 0.0914 0.1334
-0.2497 0.0188 0.1484
-0.3092 0.1097 0.1102
-0.2776 0.1754 0.1262
-0.2493 0.1850 0.1252
-0.2345 0.1706 0.5137
-0.2097 0.1852 0.5271
-0.2310 -0.0071 0.4462
-0.2493 0.0313 0.3989
-0.2081 0.1852 0.4973
-0.2352 0.1623 0.4292
-0.2058 0.1831 0.4479
-0.2024 0.1831 0.3875
-0.1490 0.2103 0.4703
-0.1700 0.1996 0.3860
-0.1421 0.2119 0.3841
-0.0872 0.2378 0.4999
-0.0822 0.2448 0.4285
-0.0242 0.2638 0.4474
-0.2062 -0.0487 0.4086
-0.2196 -0.0153 0.3622
-0.2005 -0.0526 0.3205
-0.1841 -0.1004 0.3724
-0.1677 -0.1469 0.3352
-0.1467 -0.2009 0.3069
-0.1833 -0.1090 0.2878
-0.1795 -0.1556 0.2496
-0.2406 0.0225 0.3148
-0.2142 -0.0241 0.2780
-0.2394 0.0142 0.2299
-0.1994 -0.0752 0.2456
-0.2192 -0.0323 0.1928
-0.2161 -0.0793 0.1549
-0.1997 -0.1241 0.2103
-0.1906 0.1887 0.3007
-0.1940 0.1960 0.2259
-0.1387 0.2140 0.3215
-0.1295 0.2257 0.2575
-0.1913 0.2073 0.1741
-0.1662 0.2209 0.1702
-0.1314 0.2380 0.1863
-0.1047 0.2370 0.3425
-0.0799 0.2505 0.3551
-0.0776 0.2578 0.3180
-0.0212 0.2694 0.3885
-0.0311 0.2754 0.2994
-0.0761 0.2638 0.2885
-0.0765 0.2753 0.2062
-0.0128 0.2836 0.2303
-0.2264 -0.0406 0.1080
-0.1368 -0.2251 0.1960
-0.1635 -0.2022 0.2124
-0.2142 -0.1255 0.1167
-0.1982 -0.1691 0.1709
-0.1917 -0.1917 0.1037
-0.1936 -0.1855 0.1468
-0.1742 -0.2105 0.1276
-0.1345 -0.2293 0.1514
-0.0765 -0.2333 0.1925
-0.0166 -0.2276 0.2008
-0.0746 -0.2323 0.1578
-0.0139 -0.2202 0.1454
-0.1913 -0.1513 -0.1361
-0.1200 -0.2279 -0.1312
-0.1784 -0.1736 -0.1540
-0.1761 -0.1775 -0.1982
-0.1280 -0.2028 -0.1746
-0.0601 -0.2297 -0.1263
-0.0010 -0.2153 -0.0992
-0.0570 -0.2092 -0.1761
0.0704 -0.3098 0.8327
0.1421 -0.1760 0.9522
0.1597 -0.2227 0.9151
0.1513 -0.1378 0.9061
0.1658 -0.1848 0.8688
0.1295 -0.2985 0.8508
0.1314 -0.3024 0.8216
0.1555 -0.2689 0.8769
0.1818 -0.2315 0.8317
0.1940 -0.2789 0.7960
0.1570 -0.0999 0.8598
0.1608 -0.1462 0.8219
0.1677 -0.0620 0.8136
0.1631 -0.1083 0.7757
0.1719 -0.1931 0.7844
0.1963 -0.2382 0.7466
0.1566 -0.1552 0.7371
0.1608 -0.2014 0.6992
0.0746 -0.3209 0.7520
0.0811 -0.3146 0.6277
0.1997 -0.2309 0.6778
0.1417 0.0201 0.7169
0.1692 -0.0241 0.7674
0.1734 -0.0704 0.7296
0.1692 -0.0324 0.6825
0.1555 -0.1166 0.6905
0.1421 -0.1630 0.6519
0.1635 -0.0787 0.6443
0.1456 -0.1344 0.5979
0.1257 0.0525 0.6719
0.1433 0.0238 0.6496
0.1234 0.0908 0.6254
0.1498 0.0467 0.5907
0.1566 0.0059 0.6356
0.1799 -0.0412 0.5985
0.1715 -0.0874 0.5598
0.1982 -0.0029 0.5531
0.2089 -0.0426 0.5071
0.0891 -0.2764 0.4776
0.0925 -0.2796 0.4125
0.2047 -0.2539 0.5750
0.1471 -0.2142 0.5243
0.1395 -0.1717 0.5670
0.2032 -0.3431 0.5857
0.1467 -0.1554 0.5472
0.1578 -0.1339 0.5212
0.1692 -0.1805 0.4836
0.1894 -0.0960 0.4764
0.1883 -0.1423 0.4382
0.2070 -0.2358 0.3628
0.2074 -0.1889 0.4010
0.3192 -0.2172 0.6957
0.0967 -0.2660 0.3314
0.0391 0.2480 0.4329
0.0925 0.2020 0.4832
0.0979 0.1928 0.4002
0.1230 0.1291 0.5785
0.1482 0.0767 0.5426
0.1131 0.1670 0.5319
0.1311 0.1204 0.4948
0.1539 0.0737 0.4576
0.1860 0.0353 0.5057
0.2127 -0.0113 0.4689
0.1837 0.0271 0.4208
0.1177 0.1587 0.4470
0.1322 0.1117 0.4099
0.1570 0.0590 0.3709
0.1173 0.1504 0.3625
0.1330 0.1034 0.3250
0.2020 -0.0582 0.4303
0.2135 -0.0307 0.4534
0.1875 -0.1043 0.3912
0.1860 -0.0199 0.3829
0.1711 -0.0661 0.3443
0.1902 -0.1506 0.3533
0.1906 -0.1975 0.3155
0.1620 -0.1094 0.3016
0.1612 -0.1574 0.2689
0.1612 0.0380 0.3113
0.1559 0.0567 0.2883
0.1608 -0.0234 0.3018
0.1627 -0.0066 0.2713
0.1631 0.0310 0.2678
0.1662 0.0185 0.3352
0.1646 0.0021 0.2438
0.1478 -0.0742 0.2583
0.1425 -0.1208 0.2196
0.1524 -0.0360 0.2121
0.1410 -0.0825 0.1730
0.0460 0.2461 0.3442
-0.0071 0.2742 0.3012
0.0444 0.2488 0.2831
0.1009 0.1831 0.3138
0.0685 0.2267 0.2668
0.1051 0.1735 0.2300
0.0425 0.2548 0.2257
0.0857 0.2180 0.1826
0.1177 0.1417 0.2781
0.1147 0.1772 0.1515
0.1436 0.0947 0.2409
0.1704 0.0543 0.2090
0.1284 0.1330 0.1936
0.1688 0.0833 0.1578
0.1669 -0.0148 0.1865
0.1585 -0.0447 0.1272
0.1688 -0.0224 0.1464
0.1711 -0.0251 0.1042
0.1768 0.0014 0.1666
0.1910 0.0393 0.1209
0.1452 0.1243 0.1099
0.1032 -0.2122 0.2199
0.1032 -0.1705 0.0991
0.1341 -0.1291 0.1348
0.0834 -0.1539 -0.1221
