0.20064 0.431993 -0.093802
0.200808 0.435391 -0.101203
0.198426 0.439058 -0.0905594
0.199632 0.442733 -0.0979653
0.19891 0.43824 -0.108595
0.19377 0.440075 -0.115033
0.199878 0.446152 -0.105367
0.198151 0.449047 -0.112759
0.189812 0.421589 -0.11387
0.187845 0.430795 -0.118
0.182901 0.421002 -0.122826
0.192085 0.447073 -0.121703
0.19501 0.451564 -0.120147
0.19254 0.454261 -0.127537
0.191009 0.451005 -0.128734
0.190204 0.456031 -0.135333
0.182475 0.428619 -0.137194
0.182037 0.424042 -0.130259
0.181505 0.423748 -0.139138
0.18582 0.435205 -0.125985
0.185461 0.43801 -0.133576
0.182855 0.432075 -0.144596
0.181261 0.424534 -0.147594
0.180266 0.428156 -0.154766
0.182657 0.435376 -0.151996
0.185375 0.440514 -0.141562
0.185092 0.442984 -0.149066
0.189495 0.442442 -0.123357
0.188586 0.445554 -0.130753
0.188167 0.448797 -0.138152
0.18706 0.451856 -0.145548
0.18856 0.459637 -0.141188
0.19329 0.443166 -0.0824977
0.195362 0.445897 -0.0873132
0.198168 0.449998 -0.0947253
0.191726 0.448994 -0.0855809
0.190397 0.453952 -0.0878597
0.193767 0.45648 -0.091474
0.199899 0.457166 -0.109534
0.199784 0.449829 -0.103803
0.199056 0.452446 -0.111429
0.199276 0.453093 -0.100911
0.19702 0.461097 -0.0984908
0.1999 0.464821 -0.1063
-0.268812 0.0116718 -0.154873
0.189079 0.458873 -0.0899165
0.194597 0.46939 -0.0993511
0.197826 0.471923 -0.103059
0.192264 0.477314 -0.100312
0.191319 0.466838 -0.0956312
0.187637 0.464257 -0.0920846
0.186188 0.469673 -0.0938348
0.185084 0.473811 -0.0945315
0.183188 0.449679 -0.0853799
-0.263842 0.0127038 -0.163833
0.175396 0.447561 -0.0850165
0.180226 0.460276 -0.0883503
0.172737 0.457539 -0.085948
-0.263924 0.00932845 -0.156433
0.169087 0.464649 -0.0854645
0.17787 0.469599 -0.0894438
0.182253 0.472079 -0.0923594
0.19788 0.456753 -0.11829
0.199884 0.460516 -0.116934
0.196589 0.462999 -0.124928
0.194608 0.468854 -0.130431
0.193348 0.475828 -0.136155
0.193144 0.46543 -0.131707
0.189847 0.467906 -0.139093
0.152965 0.411651 -0.0968339
0.152303 0.408522 -0.0980781
0.151977 0.40982 -0.0933708
0.153625 0.41518 -0.104237
0.151822 0.410197 -0.106132
0.150694 0.414327 -0.113073
0.152326 0.418189 -0.111632
0.149356 0.420884 -0.120114
0.157694 0.428218 -0.0903876
0.158506 0.431788 -0.0977915
0.155363 0.43766 -0.112579
0.145932 0.431929 -0.131534
0.149603 0.442834 -0.127355
0.14267 0.445514 -0.143559
0.170645 0.446973 -0.0839763
0.167569 0.445607 -0.0827536
0.166666 0.449001 -0.0826556
0.165327 0.454035 -0.0825357
0.162905 0.463116 -0.0838635
0.158582 0.447983 -0.082143
0.156664 0.454503 -0.087125
0.158891 0.462508 -0.0848606
0.155717 0.465017 -0.0922476
0.155554 0.459126 -0.0968411
0.154902 0.468154 -0.0996443
0.155887 0.458037 -0.104033
0.158888 0.43619 -0.0871594
0.159039 0.439584 -0.0945607
0.158288 0.443685 -0.083924
0.157776 0.446902 -0.0913222
0.15457 0.460718 -0.120381
0.155201 0.471587 -0.107046
0.156138 0.475191 -0.114451
0.152105 0.471514 -0.133167
0.155369 0.481694 -0.129248
0.148446 0.464543 -0.135686
0.176022 0.443939 -0.165239
0.183748 0.447155 -0.157228
0.179875 0.448998 -0.163552
0.173894 0.451809 -0.173242
0.184873 0.454628 -0.152939
0.181513 0.456201 -0.1607
0.185551 0.462463 -0.149709
-0.259382 0.00671693 -0.168146
-0.259564 0.00283401 -0.159684
-0.267049 0.0051369 -0.149029
0.182711 0.465061 -0.157097
-0.265 -0.00247463 -0.143658
-0.260353 -0.000730034 -0.15228
-0.262517 -0.00466012 -0.144871
0.174708 0.469639 -0.171864
0.172563 0.456748 -0.177059
-0.258505 -0.00118426 -0.170322
-0.2588 -0.00461654 -0.16292
-0.25806 -0.00872043 -0.173557
-0.25823 -0.0121199 -0.166156
-0.25952 -0.00816213 -0.155517
-0.260919 -0.0118892 -0.148111
0.186553 0.467448 -0.14772
0.18743 0.470617 -0.146483
0.185162 0.473142 -0.153969
0.19164 0.478918 -0.141401
0.187784 0.481719 -0.150652
0.182928 0.484636 -0.159916
-0.258407 -0.0155209 -0.158755
-0.259252 -0.0190993 -0.151351
0.189551 0.489035 -0.148631
0.186841 0.49917 -0.152585
0.18546 0.49211 -0.15481
0.179493 0.493831 -0.162204
-0.263173 -0.0119364 -0.207762
0.180552 0.501811 -0.158956
-0.262343 -0.00409875 -0.206373
0.179011 0.486093 -0.165416
-0.25905 -0.00657646 -0.198987
-0.260209 -0.0145392 -0.202216
-0.257178 -0.009432 -0.191595
-0.256982 -0.0127336 -0.184196
-0.257317 -0.0171235 -0.194828
-0.256258 -0.0201959 -0.187431
0.177161 0.502506 -0.162464
0.163957 0.504103 -0.173687
-0.260397 -0.0222015 -0.203389
-0.258331 -0.0284216 -0.199482
-0.259086 -0.0329028 -0.201286
-0.256745 -0.0343383 -0.196753
-0.257809 -0.0249083 -0.198058
0.147812 0.487522 -0.140979
0.137282 0.464275 -0.141602
0.133353 0.482445 -0.144146
-0.255546 -0.0276603 -0.190668
-0.25529 -0.0352462 -0.193902
-0.257332 -0.0161807 -0.176793
0.160268 0.346479 -0.142848
0.158144 0.354384 -0.147577
0.157476 0.343016 -0.143985
0.150673 0.351087 -0.145638
0.150164 0.358772 -0.142769
0.146098 0.370605 -0.131005
0.146225 0.3679 -0.124114
0.145775 0.377701 -0.136787
-0.256966 -0.0194372 -0.169394
-0.25613 -0.0235154 -0.180032
0.143448 0.347788 -0.122448
0.145861 0.35188 -0.130069
0.135548 0.345057 -0.149384
0.144701 0.355871 -0.119431
0.14617 0.359616 -0.126838
0.14629 0.365228 -0.115664
0.147848 0.372018 -0.112978
0.146331 0.374968 -0.120372
0.148585 0.379868 -0.109748
0.1464 0.382641 -0.117139
0.145028 0.377975 -0.127767
0.144308 0.385438 -0.124531
0.142957 0.388432 -0.131926
0.147882 0.398343 -0.110679
0.142505 0.40362 -0.125457
0.14522 0.395742 -0.146736
0.139023 0.409402 -0.140244
0.145495 0.417832 -0.155072
0.142482 0.425631 -0.133792
0.134045 0.430093 -0.148557
0.112566 0.431478 -0.145467
0.128103 0.440822 -0.143172
0.110978 0.437561 -0.138238
0.122708 0.460717 -0.133746
0.107461 0.450913 -0.129504
0.112842 0.470377 -0.129069
0.103596 0.465526 -0.123756
0.137959 0.162637 -0.0591925
0.138764 0.166205 -0.0665959
0.138494 0.170433 -0.0559612
0.14012 0.173048 -0.0632764
0.142171 0.173819 -0.0814114
0.140369 0.170608 -0.074189
0.141496 0.17794 -0.0707746
0.14226 0.181497 -0.0781785
0.139141 0.176871 -0.0528211
0.141278 0.182183 -0.0601404
0.139633 0.186045 -0.0495001
0.141157 0.189805 -0.0569065
0.142503 0.185863 -0.0675464
0.139965 0.193788 -0.0462677
0.140903 0.197391 -0.0536727
0.183885 0.483056 -0.0955066
0.175923 0.477979 -0.088946
-0.255205 -0.0266232 -0.172635
-0.256311 -0.0226177 -0.161997
0.174194 0.483266 -0.0867241
0.18116 0.490255 -0.0928566
0.168156 0.474745 -0.0863391
0.166055 0.482663 -0.0849119
0.171823 0.492421 -0.0829566
0.179158 0.497414 -0.0896996
0.169529 0.501041 -0.0831924
0.176824 0.505164 -0.0864714
0.165064 0.486396 -0.0843074
0.163819 0.491068 -0.0846391
0.162024 0.497761 -0.0879694
0.163877 0.501159 -0.0867498
0.189916 0.486959 -0.100601
0.187839 0.496275 -0.10025
-0.256301 -0.025968 -0.154596
0.185277 0.502729 -0.0978587
0.183459 0.509878 -0.0945705
0.16082 0.502239 -0.0909131
-0.253943 -0.0296412 -0.16524
0.167443 0.508856 -0.0846561
0.181885 0.516991 -0.0910603
0.179643 0.524157 -0.088056
0.174886 0.512287 -0.0847611
0.172705 0.520492 -0.0840157
0.177729 0.532947 -0.0884472
0.181668 0.535565 -0.0919267
0.175021 0.540265 -0.0895935
0.170462 0.52891 -0.0847519
0.167368 0.540498 -0.0870994
0.163373 0.519302 -0.0868292
0.161046 0.511414 -0.0909049
0.159703 0.506403 -0.0928654
0.157203 0.513221 -0.0971338
0.156317 0.519797 -0.0959229
0.156742 0.528932 -0.0918211
0.158537 0.537064 -0.0885954
0.152768 0.53239 -0.0977926
0.152578 0.538832 -0.0959711
0.1507 0.540597 -0.103824
0.16228 0.465459 -0.0840091
0.159029 0.474904 -0.0879468
0.162387 0.482101 -0.0858095
0.156933 0.484001 -0.0918569
0.154689 0.475752 -0.0964104
0.159308 0.492289 -0.0899637
0.154734 0.479117 -0.103812
0.156025 0.487674 -0.108319
0.155526 0.488185 -0.100073
0.157324 0.497523 -0.12279
0.157226 0.495089 -0.0973558
0.15635 0.49821 -0.104752
0.158779 0.503157 -0.0941291
0.156512 0.505908 -0.10152
0.15577 0.509064 -0.108917
0.156887 0.513924 -0.11899
0.154573 0.5164 -0.105679
0.154956 0.519855 -0.113081
0.153203 0.523689 -0.10244
0.153134 0.527025 -0.10984
-0.340949 -0.357673 -0.055589
-0.34398 -0.363789 -0.0578196
0.183486 0.510247 -0.155733
0.159106 0.520014 -0.131132
0.158376 0.510725 -0.13497
0.156723 0.516701 -0.149888
0.159351 0.526786 -0.145934
0.180374 0.520467 -0.159068
-0.334152 -0.349156 -0.0704188
-0.336971 -0.358135 -0.0735082
-0.338723 -0.353121 -0.0634938
0.174806 0.511347 -0.162987
0.172447 0.520196 -0.164001
0.177144 0.530612 -0.162979
0.170285 0.528307 -0.164738
0.175574 0.539826 -0.165247
0.167944 0.537122 -0.163729
0.157004 0.515442 -0.162516
0.158371 0.510182 -0.170468
0.15982 0.504627 -0.177254
0.162667 0.534377 -0.160749
0.154155 0.529724 -0.1152
0.156165 0.53454 -0.124654
0.15907 0.542021 -0.139467
0.152748 0.537931 -0.114006
0.151852 0.535644 -0.109482
0.154283 0.541693 -0.121413
0.150982 0.545115 -0.110765
0.152303 0.54882 -0.118172
0.155905 0.556486 -0.132987
0.172849 0.547186 -0.165769
0.170818 0.558552 -0.168619
0.165986 0.544519 -0.161071
0.166263 0.553996 -0.161698
0.164103 0.551647 -0.157772
0.16348 0.56091 -0.158454
0.162288 0.55853 -0.153896
0.165434 0.564784 -0.165862
0.160058 0.565008 -0.149368
0.161228 0.567965 -0.155211
0.162593 0.571682 -0.162617
0.162449 0.549628 -0.154282
0.155992 0.503876 -0.137586
0.144052 0.501428 -0.154861
0.151346 0.509348 -0.152367
0.129134 0.494663 -0.155979
0.173971 0.552604 -0.0922763
0.170288 0.560819 -0.0939158
0.164528 0.551128 -0.0897632
0.16271 0.557925 -0.0919482
0.169024 0.565545 -0.095423
-0.253012 -0.0327475 -0.157844
-0.254455 -0.030724 -0.183272
-0.253353 -0.0337846 -0.175876
-0.252573 -0.0378772 -0.186513
-0.251003 -0.0408137 -0.179119
-0.252292 -0.036856 -0.16848
-0.251154 -0.0399074 -0.161084
-0.250623 -0.0440666 -0.17172
-0.249942 -0.047239 -0.164323
0.160438 0.566419 -0.0949386
0.151306 0.557156 -0.0969
0.167665 0.570628 -0.0969656
0.165243 0.57932 -0.098014
0.157714 0.576635 -0.0958993
0.145318 0.56492 -0.110556
0.150108 0.570253 -0.126497
0.142138 0.572369 -0.0955671
0.138738 0.582971 -0.120943
0.15537 0.58492 -0.154999
0.153656 0.577905 -0.141312
0.146289 0.591253 -0.134815
0.147901 0.59839 -0.149622
0.163025 0.588052 -0.0978746
0.160731 0.596665 -0.0980925
0.155729 0.584108 -0.0949857
0.153398 0.592881 -0.0940183
0.151235 0.601027 -0.0931314
0.149514 0.610106 -0.0917385
0.156369 0.613081 -0.0966129
0.146931 0.589792 -0.0909726
0.138521 0.58608 -0.0876854
0.144148 0.595725 -0.0886738
0.140556 0.603947 -0.0856768
0.136623 0.593261 -0.084514
0.134635 0.600771 -0.0821214
0.135427 0.604528 -0.12694
0.145667 0.616654 -0.141648
0.129363 0.619864 -0.127324
0.126884 0.574 -0.104571
0.122923 0.58189 -0.0875331
0.121518 0.586715 -0.116209
0.119402 0.595257 -0.0788353
0.112803 0.584235 -0.0986062
0.112257 0.590797 -0.113405
0.108215 0.598322 -0.0921199
0.103676 0.603822 -0.106902
0.100171 0.482313 -0.12255
0.0992424 0.481911 -0.122203
0.0989625 0.482964 -0.122133
0.0946105 0.509558 -0.145661
0.0946504 0.499157 -0.122691
0.0906886 0.514122 -0.117774
0.0933319 0.524526 -0.13919
0.118425 0.598987 -0.0753958
0.118983 0.609788 -0.0708987
0.116168 0.60759 -0.0676894
0.114399 0.614223 -0.0684907
-0.263914 -0.00652212 -0.141576
-0.26127 -0.0165288 -0.141447
-0.258854 -0.0238435 -0.135767
-0.259297 -0.0224655 -0.14395
0.130261 0.617231 -0.0807465
-0.258326 -0.0322681 -0.121753
-0.251964 -0.0197853 -0.126269
-0.249906 -0.0275321 -0.127296
0.0994367 0.611294 -0.0856168
0.0989579 0.617875 -0.100416
-0.242415 -0.0242993 -0.128629
-0.244717 -0.0156763 -0.130309
-0.235403 -0.0229971 -0.129431
-0.255968 -0.0292337 -0.147198
-0.254198 -0.0321164 -0.139804
-0.251909 -0.0358076 -0.150448
-0.249941 -0.038638 -0.143055
-0.248075 -0.0344731 -0.131036
-0.246431 -0.0402919 -0.13549
-0.249336 -0.0427778 -0.153691
-0.24693 -0.0454908 -0.146301
-0.24826 -0.0501453 -0.156929
-0.245966 -0.052889 -0.149539
-0.244423 -0.048211 -0.138991
-0.244121 -0.0557518 -0.142146
-0.242779 -0.0525056 -0.132114
-0.243144 -0.0588457 -0.13475
-0.239911 -0.0336974 -0.127988
-0.238267 -0.0398689 -0.127303
-0.239742 -0.0426317 -0.128298
-0.251357 -0.0532705 -0.113803
-0.242393 -0.0496172 -0.114429
-0.243018 -0.0532172 -0.114753
-0.241992 -0.061893 -0.127354
-0.241802 -0.0557343 -0.124775
-0.239688 -0.0654442 -0.120717
-0.249285 -0.0609686 -0.108479
-0.248571 -0.0636324 -0.107229
0.167695 0.56849 -0.174078
0.168047 0.572188 -0.180674
0.165432 0.576602 -0.178504
0.163731 0.575339 -0.170022
0.157088 0.592234 -0.170929
0.1605 0.59985 -0.185744
0.149829 0.604993 -0.164919
0.152904 0.613137 -0.179245
0.148013 0.612049 -0.1615
-0.24758 -0.0728696 -0.104887
-0.243306 -0.0612967 -0.109315
-0.241287 -0.0596726 -0.11172
-0.240551 -0.0624154 -0.110109
-0.24113 -0.0717254 -0.105156
-0.238439 -0.0702991 -0.106733
-0.237438 -0.0429628 -0.126224
-0.235901 -0.0486806 -0.122484
-0.233934 -0.0560071 -0.118315
-0.301386 -0.0552401 -0.197019
-0.292732 -0.0491876 -0.203719
-0.29051 -0.0597393 -0.199809
-0.305263 -0.0595537 -0.189524
-0.305425 -0.0629511 -0.182122
-0.298735 -0.0657897 -0.193113
-0.303197 -0.0700126 -0.185365
-0.303604 -0.06582 -0.17473
-0.301354 -0.068575 -0.167339
-0.302907 -0.073289 -0.177966
-0.300758 -0.0760712 -0.170575
-0.296185 -0.0768648 -0.189662
-0.288265 -0.0702474 -0.195866
-0.286295 -0.080921 -0.19201
-0.301184 -0.0804848 -0.181207
-0.300188 -0.0835736 -0.17381
-0.296652 -0.0869331 -0.184459
-0.293481 -0.0845686 -0.187826
-0.298473 -0.0907714 -0.177051
-0.292145 -0.089561 -0.186094
-0.293628 -0.0971366 -0.180304
-0.290749 -0.0947702 -0.183847
-0.289537 -0.0992919 -0.181692
-0.283699 -0.0913127 -0.187948
-0.28072 -0.101396 -0.183642
-0.279791 -0.0421656 -0.210644
-0.286432 -0.0485401 -0.205954
-0.284148 -0.0570719 -0.202813
-0.277007 -0.0525615 -0.206689
-0.283169 -0.0607313 -0.201415
-0.274241 -0.0628942 -0.202669
-0.27193 -0.0403093 -0.211105
-0.269174 -0.0506005 -0.207035
-0.26238 -0.0416396 -0.205041
-0.259491 -0.0519524 -0.20099
-0.266384 -0.061022 -0.203219
-0.281423 -0.0672478 -0.198894
-0.280342 -0.071287 -0.197386
-0.278711 -0.0773811 -0.195075
-0.271479 -0.073208 -0.198586
-0.263649 -0.0712327 -0.198837
-0.25685 -0.062199 -0.196796
-0.254204 -0.072479 -0.192514
-0.277513 -0.0818566 -0.193364
-0.268735 -0.083451 -0.194347
-0.275976 -0.0875934 -0.191069
-0.274726 -0.0922617 -0.189266
-0.273242 -0.0978026 -0.187073
-0.265968 -0.0937828 -0.190329
-0.271993 -0.102466 -0.185078
-0.263244 -0.103944 -0.185438
-0.260934 -0.081366 -0.19437
-0.258158 -0.0917321 -0.190417
-0.250911 -0.0827835 -0.188664
-0.248132 -0.0929405 -0.184556
-0.255448 -0.101834 -0.185202
-0.299643 -0.0714737 -0.159946
-0.298216 -0.0744481 -0.152551
-0.298387 -0.078794 -0.163184
-0.296058 -0.081528 -0.155793
-0.296402 -0.0773191 -0.145159
-0.294388 -0.0796317 -0.138882
-0.29389 -0.0843051 -0.148402
-0.292928 -0.0859564 -0.144198
-0.292311 -0.0872386 -0.141009
-0.297707 -0.0862676 -0.16642
-0.294761 -0.0888376 -0.159032
-0.296966 -0.0937243 -0.169656
-0.294113 -0.0963194 -0.162268
-0.292059 -0.0914722 -0.151643
-0.290568 -0.0947379 -0.145012
-0.291176 -0.0988915 -0.15488
-0.28947 -0.101791 -0.147487
-0.289575 -0.0932188 -0.126219
-0.285009 -0.0839699 -0.122845
-0.291124 -0.0902767 -0.133613
-0.286567 -0.0957719 -0.118831
-0.281273 -0.0976852 -0.111679
-0.289648 -0.100892 -0.129452
-0.289814 -0.0974006 -0.127958
-0.290322 -0.0961231 -0.136176
-0.289034 -0.105029 -0.140088
-0.288976 -0.108368 -0.132688
-0.288549 -0.102996 -0.121651
-0.288444 -0.11158 -0.12529
-0.286979 -0.114544 -0.117895
-0.287061 -0.106648 -0.116883
-0.294735 -0.100785 -0.172899
-0.292897 -0.10365 -0.165506
-0.287863 -0.10706 -0.176864
-0.289636 -0.110437 -0.168753
-0.29029 -0.10631 -0.158117
-0.288537 -0.109198 -0.150724
-0.288166 -0.113399 -0.161359
-0.287042 -0.116454 -0.153963
-0.285526 -0.114189 -0.170818
-0.276801 -0.111217 -0.179019
-0.282107 -0.116087 -0.172018
-0.276155 -0.118046 -0.173539
-0.283591 -0.119835 -0.163977
-0.283332 -0.123893 -0.157538
-0.273866 -0.124865 -0.167609
-0.277041 -0.129101 -0.160472
-0.287961 -0.112398 -0.143326
-0.287818 -0.115714 -0.135926
-0.286552 -0.119677 -0.146565
-0.286225 -0.122944 -0.139166
-0.287348 -0.118943 -0.128528
-0.286227 -0.121998 -0.121132
-0.285603 -0.126132 -0.131768
-0.284577 -0.129214 -0.124372
-0.284316 -0.126736 -0.149808
-0.284164 -0.13005 -0.142408
-0.280038 -0.133165 -0.152617
-0.280866 -0.136827 -0.145655
-0.283528 -0.133235 -0.13501
-0.28249 -0.136312 -0.127614
-0.280794 -0.140161 -0.138255
-0.279959 -0.143293 -0.130858
-0.265817 -0.0930527 -0.108299
-0.268538 -0.082924 -0.114315
-0.259089 -0.0843179 -0.108695
-0.253155 -0.0777974 -0.106319
-0.270401 -0.108403 -0.182148
-0.269539 -0.111613 -0.180411
-0.26755 -0.119977 -0.175474
-0.261275 -0.111274 -0.181232
-0.259918 -0.116333 -0.178663
-0.253562 -0.108855 -0.181109
-0.252082 -0.114375 -0.178414
-0.246173 -0.103251 -0.17984
-0.244219 -0.113686 -0.17484
-0.2727 -0.130838 -0.161712
-0.27877 -0.139201 -0.146902
-0.270375 -0.138296 -0.156143
-0.27439 -0.142758 -0.148915
-0.26874 -0.145545 -0.150751
-0.276564 -0.146648 -0.141183
-0.275975 -0.150936 -0.13455
-0.267396 -0.152692 -0.145929
-0.271879 -0.156452 -0.137358
-0.264452 -0.162524 -0.141136
-0.258804 -0.120488 -0.176595
-0.265233 -0.127625 -0.170043
-0.264825 -0.133574 -0.164532
-0.258629 -0.128671 -0.171806
-0.254049 -0.138176 -0.165307
-0.25104 -0.11826 -0.176559
-0.247402 -0.125687 -0.171842
-0.246261 -0.136048 -0.165807
-0.241992 -0.120748 -0.169849
-0.239684 -0.126911 -0.164428
-0.259676 -0.142046 -0.159148
-0.264097 -0.147673 -0.152191
-0.260581 -0.144893 -0.156275
-0.259384 -0.149343 -0.153446
-0.252585 -0.1436 -0.160631
-0.2505 -0.151754 -0.155541
-0.257839 -0.157796 -0.149031
-0.255413 -0.167114 -0.144477
-0.246839 -0.161675 -0.151129
-0.237788 -0.137306 -0.159262
-0.244558 -0.142369 -0.161047
-0.242501 -0.150034 -0.15688
-0.235105 -0.147593 -0.155143
-0.2398 -0.16011 -0.152128
-0.232849 -0.158064 -0.150331
-0.245494 -0.170021 -0.146167
-0.237158 -0.169939 -0.146095
-0.23026 -0.164449 -0.14559
-0.255635 -0.0384842 -0.19523
-0.2552 -0.043596 -0.195548
-0.25215 -0.0529659 -0.191465
-0.251721 -0.0453047 -0.189749
-0.248767 -0.0478726 -0.182361
-0.248654 -0.055497 -0.185595
-0.247713 -0.0509466 -0.174966
-0.247491 -0.0542409 -0.167566
-0.245664 -0.0580552 -0.178208
-0.244129 -0.0610004 -0.170813
-0.24947 -0.0632751 -0.187018
-0.246604 -0.0734315 -0.183538
-0.245971 -0.0657913 -0.181439
-0.242587 -0.0682449 -0.174053
-0.242553 -0.0758897 -0.177286
-0.243567 -0.0838032 -0.180321
-0.246854 -0.0574256 -0.160168
-0.245593 -0.0604432 -0.152773
-0.243829 -0.0642748 -0.163414
-0.243982 -0.0676692 -0.156013
-0.244285 -0.0634499 -0.145378
-0.24323 -0.0665228 -0.137982
-0.243779 -0.0709692 -0.148614
-0.242941 -0.0741005 -0.141216
-0.240916 -0.0711537 -0.16666
-0.24112 -0.0745625 -0.159258
-0.239698 -0.0784838 -0.169898
-0.238844 -0.0816106 -0.162501
-0.242097 -0.0781762 -0.151854
-0.242072 -0.0815234 -0.144454
-0.239209 -0.0850618 -0.155099
-0.239372 -0.0884593 -0.147698
-0.241618 -0.0694481 -0.130589
-0.239025 -0.0721114 -0.123199
-0.241176 -0.0769843 -0.133824
-0.23839 -0.0795968 -0.126435
-0.237806 -0.0726635 -0.10594
-0.235588 -0.0812394 -0.121178
-0.240516 -0.0844635 -0.13706
-0.237549 -0.0870274 -0.129672
-0.238191 -0.0914983 -0.140303
-0.235302 -0.0940832 -0.132914
-0.233566 -0.0888689 -0.123287
-0.230825 -0.0957437 -0.126641
-0.223316 -0.095959 -0.121789
-0.240925 -0.0941221 -0.175636
-0.239864 -0.0861825 -0.17313
-0.237781 -0.0889822 -0.165739
-0.237583 -0.0965835 -0.168973
-0.236454 -0.0919833 -0.158344
-0.23493 -0.0949311 -0.15095
-0.234698 -0.0991698 -0.161584
-0.23169 -0.101723 -0.154196
-0.238301 -0.104449 -0.170894
-0.236317 -0.110614 -0.16623
-0.238697 -0.115542 -0.168034
-0.234467 -0.117821 -0.160254
-0.23502 -0.10691 -0.164816
-0.231764 -0.109397 -0.15743
-0.232687 -0.0976882 -0.143559
-0.230669 -0.0992862 -0.136286
-0.230604 -0.100342 -0.144923
-0.229899 -0.103074 -0.150172
-0.227801 -0.11186 -0.148274
-0.231051 -0.120215 -0.153265
-0.225953 -0.115639 -0.143109
-0.227538 -0.122635 -0.145879
-0.224041 -0.125056 -0.138258
-0.228418 -0.104207 -0.14681
-0.22565 -0.106824 -0.139421
-0.224448 -0.102204 -0.128793
-0.221585 -0.102537 -0.126388
-0.222364 -0.109303 -0.132035
-0.219485 -0.110449 -0.127829
-0.216549 -0.11111 -0.124659
-0.223024 -0.117133 -0.135265
-0.218409 -0.114464 -0.125859
-0.220147 -0.119722 -0.127877
-0.221099 -0.127629 -0.131106
-0.232521 -0.1247 -0.154988
-0.234006 -0.128656 -0.156486
-0.231187 -0.129676 -0.152591
-0.229709 -0.135204 -0.150935
-0.229658 -0.139076 -0.151085
-0.228921 -0.130657 -0.149107
-0.224793 -0.132913 -0.141724
-0.221228 -0.135411 -0.134538
-0.225364 -0.140719 -0.144955
-0.22155 -0.143058 -0.13757
-0.226495 -0.148681 -0.146816
-0.224404 -0.155003 -0.142283
-0.226766 -0.159754 -0.144014
-0.223023 -0.151104 -0.140797
-0.280652 -0.119568 -0.103121
-0.27723 -0.112852 -0.100683
-0.284474 -0.117408 -0.110116
-0.274224 -0.12202 -0.0966714
-0.284397 -0.124866 -0.11374
-0.281854 -0.127138 -0.106179
-0.283142 -0.132186 -0.116978
-0.281199 -0.135023 -0.109585
-0.273462 -0.139671 -0.0948166
-0.271417 -0.134568 -0.0929002
-0.272478 -0.130605 -0.094126
-0.278608 -0.138681 -0.103172
-0.281243 -0.139334 -0.120219
-0.279859 -0.14232 -0.112824
-0.278936 -0.146375 -0.123462
-0.278004 -0.149481 -0.116065
-0.278051 -0.145193 -0.105431
-0.276575 -0.146723 -0.101194
-0.276908 -0.152543 -0.108669
-0.275091 -0.155413 -0.101277
-0.27529 -0.151525 -0.0996105
-0.275244 -0.1478 -0.0980428
-0.269851 -0.140427 -0.0910433
-0.267914 -0.160211 -0.0865057
-0.265846 -0.155375 -0.0847042
-0.267123 -0.150616 -0.0870948
-0.272275 -0.158018 -0.0938876
-0.268407 -0.145822 -0.0891875
-0.273898 -0.156726 -0.0976864
-0.263662 -0.162834 -0.0797534
-0.262097 -0.106894 -0.0996566
-0.266821 -0.120442 -0.0931289
-0.260177 -0.114026 -0.0943516
-0.257769 -0.120595 -0.0891449
-0.248872 -0.0938074 -0.101191
-0.254335 -0.104647 -0.0989886
-0.247295 -0.0996938 -0.0986169
-0.252569 -0.111206 -0.094047
-0.251097 -0.116637 -0.0876956
-0.245533 -0.106253 -0.0946576
-0.243703 -0.113009 -0.0870261
-0.24184 -0.123328 -0.0711443
-0.269424 -0.130943 -0.0916006
-0.265226 -0.126392 -0.0901682
-0.260235 -0.143615 -0.08111
-0.254785 -0.134011 -0.0769697
-0.265859 -0.141002 -0.0874485
-0.250192 -0.147234 -0.0664544
-0.263944 -0.1515 -0.0832898
-0.258024 -0.164287 -0.0717466
-0.238525 -0.132045 -0.0604024
-0.247619 -0.16626 -0.0561596
-0.240301 -0.15097 -0.0505546
-0.235587 -0.142881 -0.0476873
-0.233161 -0.15194 -0.0442509
-0.228754 -0.168522 -0.0453398
-0.244782 -0.171181 -0.0506233
-0.276213 -0.153304 -0.126706
-0.275798 -0.156548 -0.119308
-0.273054 -0.160056 -0.129777
-0.273191 -0.163508 -0.122552
-0.275185 -0.159739 -0.11191
-0.274045 -0.162789 -0.104514
-0.272915 -0.166789 -0.115152
-0.272272 -0.169972 -0.107755
-0.270226 -0.17043 -0.124602
-0.268491 -0.166558 -0.133205
-0.261331 -0.172261 -0.136299
-0.264424 -0.176484 -0.129055
-0.269496 -0.174719 -0.118901
-0.269974 -0.177014 -0.110997
-0.266752 -0.183957 -0.114418
-0.266029 -0.180265 -0.121647
-0.272246 -0.165664 -0.097121
-0.272438 -0.162179 -0.095626
-0.271139 -0.167028 -0.0934682
-0.2713 -0.173067 -0.100358
-0.269785 -0.176018 -0.0929643
-0.26983 -0.170046 -0.0904369
-0.263926 -0.181166 -0.0781883
-0.261557 -0.171324 -0.0743069
-0.267655 -0.179497 -0.0865683
-0.269801 -0.180323 -0.103598
-0.269177 -0.18351 -0.0961997
-0.267519 -0.18737 -0.106841
-0.267745 -0.190784 -0.0994387
-0.267639 -0.186455 -0.0888061
-0.265089 -0.189213 -0.0817062
-0.26708 -0.193961 -0.0920415
-0.265342 -0.196852 -0.0846484
-0.259666 -0.179326 -0.13081
-0.258116 -0.186227 -0.125581
-0.26183 -0.190156 -0.117498
-0.254702 -0.196142 -0.11906
-0.263825 -0.193903 -0.109665
-0.264693 -0.197626 -0.102685
-0.262188 -0.200836 -0.104333
-0.255102 -0.200572 -0.113866
-0.259178 -0.203812 -0.105941
-0.265094 -0.201087 -0.0952831
-0.264534 -0.204291 -0.0878853
-0.260409 -0.208236 -0.0994977
-0.262301 -0.211352 -0.0911274
-0.251504 -0.209398 -0.109147
-0.258386 -0.217411 -0.0955979
-0.255628 -0.213875 -0.101789
-0.250615 -0.176979 -0.138911
-0.255023 -0.181637 -0.132328
-0.25022 -0.183465 -0.13366
-0.244504 -0.173701 -0.143705
-0.243366 -0.177931 -0.140939
-0.242014 -0.185884 -0.136716
-0.248499 -0.191441 -0.128898
-0.245329 -0.201091 -0.123557
-0.239032 -0.196695 -0.132262
-0.23519 -0.177265 -0.141611
-0.233958 -0.181862 -0.139673
-0.227599 -0.171132 -0.140372
-0.224906 -0.181463 -0.136112
-0.232412 -0.187637 -0.137499
-0.231217 -0.192099 -0.13561
-0.229869 -0.197122 -0.132985
-0.222562 -0.191725 -0.131725
-0.247986 -0.205134 -0.116622
-0.258827 -0.183766 -0.0694802
-0.262495 -0.199516 -0.0764673
-0.2614 -0.191503 -0.0740316
-0.257395 -0.19379 -0.0666477
-0.256533 -0.190062 -0.0651738
-0.259682 -0.202053 -0.0698713
-0.2545 -0.196439 -0.0600153
-0.256554 -0.204575 -0.0624843
-0.254264 -0.20732 -0.0550932
-0.252884 -0.200861 -0.0525263
-0.253628 -0.210505 -0.0476955
-0.252662 -0.203367 -0.0447933
-0.253627 -0.213858 -0.0402952
-0.252434 -0.205096 -0.0386967
-0.249883 -0.216472 -0.0323448
-0.261956 -0.230385 -0.0727566
-0.2623 -0.231705 -0.0651076
-0.263051 -0.207251 -0.0804907
-0.261035 -0.210068 -0.0730991
-0.260561 -0.20643 -0.0716175
-0.262252 -0.214692 -0.0837271
-0.261472 -0.217838 -0.0763299
-0.258819 -0.2129 -0.0655198
-0.260425 -0.220914 -0.0689342
-0.259452 -0.224009 -0.061538
-0.257155 -0.216793 -0.0587573
-0.260491 -0.221878 -0.0869677
-0.261173 -0.225414 -0.0795648
-0.267179 -0.244045 -0.0514656
-0.263562 -0.236111 -0.0573531
-0.261876 -0.232645 -0.0560863
-0.264679 -0.239762 -0.0499481
-0.261463 -0.234067 -0.0479175
-0.266454 -0.246652 -0.0438341
-0.264243 -0.243 -0.0425494
-0.259784 -0.235468 -0.0398881
-0.258655 -0.244847 -0.0349378
-0.259217 -0.227301 -0.0541382
-0.256266 -0.21988 -0.0513482
-0.259819 -0.230814 -0.0467353
-0.256066 -0.222387 -0.0436131
-0.254577 -0.225917 -0.0364615
-0.251986 -0.236059 -0.0325663
-0.246976 -0.225428 -0.0310103
-0.245753 -0.230019 -0.0304054
-0.251799 -0.177244 -0.0584712
-0.255259 -0.185568 -0.0634235
-0.251998 -0.188054 -0.0560371
-0.249991 -0.180892 -0.0532456
-0.250845 -0.191101 -0.0486414
-0.249148 -0.186117 -0.0467343
-0.246252 -0.182225 -0.0454275
-0.242655 -0.179078 -0.0445185
-0.234496 -0.178329 -0.0443063
-0.227486 -0.177533 -0.0456346
-0.247137 -0.196822 -0.0338561
-0.236782 -0.193921 -0.0334393
-0.240604 -0.1867 -0.0391591
-0.250551 -0.194377 -0.0412421
-0.446615 0.939845 -0.32401
-0.438425 0.928868 -0.329602
-0.441529 0.940638 -0.322793
-0.445541 0.955517 -0.317516
-0.453708 0.923449 -0.332212
-0.462257 0.955642 -0.327739
-0.464753 0.965001 -0.328904
-0.459193 0.973823 -0.325826
-0.467116 0.973856 -0.330516
-0.471654 0.990821 -0.336048
-0.343608 -0.363901 -0.0660448
-0.241778 -0.182344 -0.042556
-0.235919 -0.204133 -0.0284885
-0.241148 -0.215887 -0.0285434
-0.233174 -0.214426 -0.0271187
-0.232291 -0.186548 -0.040065
-0.231075 -0.191072 -0.0371807
-0.224244 -0.187984 -0.0419485
-0.230119 -0.194628 -0.0349143
-0.221097 -0.197146 -0.0359919
-0.227898 -0.202708 -0.0297661
-0.225267 -0.212725 -0.026262
-0.219323 -0.203735 -0.0312031
-0.217251 -0.211453 -0.0268095
-0.23957 -0.224088 -0.0286218
-0.232256 -0.217874 -0.0268495
-0.240355 -0.093692 -0.0970764
-0.223288 -0.129238 -0.105079
-0.221977 -0.137924 -0.108901
-0.222859 -0.128879 -0.109252
-0.221003 -0.135908 -0.112782
-0.221361 -0.133625 -0.0985928
-0.221197 -0.141071 -0.101504
-0.217066 -0.119408 -0.119287
-0.218507 -0.122639 -0.120484
-0.217055 -0.119308 -0.110428
-0.22126 -0.126726 -0.113071
-0.219301 -0.130504 -0.123713
-0.220036 -0.134054 -0.11631
-0.220122 -0.125476 -0.0950416
-0.230855 -0.126439 -0.0589285
-0.218707 -0.144051 -0.094369
-0.217175 -0.128046 -0.0876541
-0.218062 -0.135936 -0.0908834
-0.214049 -0.138222 -0.0835
-0.214586 -0.146019 -0.0867308
-0.211752 -0.138764 -0.0809644
-0.209615 -0.146813 -0.0820799
-0.201586 -0.14555 -0.0801897
-0.298439 -0.378641 -0.104542
-0.218519 -0.145613 -0.130006
-0.21942 -0.141829 -0.110849
-0.217849 -0.148922 -0.105211
-0.218241 -0.146224 -0.108532
-0.222461 -0.162043 -0.13676
-0.21994 -0.153637 -0.13341
-0.216618 -0.152574 -0.124531
-0.217091 -0.156233 -0.126021
-0.218735 -0.164325 -0.129248
-0.214734 -0.159588 -0.120483
-0.214906 -0.16666 -0.121863
-0.212555 -0.16774 -0.118108
-0.218613 -0.137976 -0.126949
-0.21761 -0.141063 -0.119553
-0.216429 -0.148403 -0.122791
-0.217965 -0.144511 -0.112151
-0.214805 -0.151324 -0.115397
-0.213655 -0.154373 -0.108002
-0.210817 -0.161271 -0.111247
-0.210158 -0.16875 -0.114483
-0.216751 -0.152074 -0.0974927
-0.213673 -0.153431 -0.0899678
-0.212167 -0.15733 -0.100608
-0.208424 -0.159688 -0.0932232
-0.207652 -0.154233 -0.0846878
-0.206046 -0.160355 -0.0903656
-0.200687 -0.148939 -0.080768
-0.20071 -0.153539 -0.0821722
-0.198634 -0.160768 -0.0851339
-0.207109 -0.163638 -0.103862
-0.205473 -0.162577 -0.0947878
-0.204817 -0.165116 -0.099266
-0.20529 -0.170809 -0.107103
-0.202938 -0.17223 -0.102596
-0.203254 -0.165966 -0.0964776
-0.201405 -0.173129 -0.0997192
-0.196531 -0.167956 -0.0881699
-0.196612 -0.175207 -0.0923383
-0.193523 -0.175984 -0.0888256
-0.220029 -0.17226 -0.131526
-0.618626 0.948596 -0.282619
-0.606197 0.937393 -0.289129
-0.610464 0.948119 -0.276808
-0.595261 0.953972 -0.265439
-0.594165 0.949766 -0.270941
-0.591431 0.93925 -0.286388
-0.578695 0.954423 -0.272197
-0.575492 0.942207 -0.283621
-0.560018 0.946845 -0.284833
-0.563699 0.960793 -0.277512
-0.556058 0.965246 -0.282883
-0.547516 0.952771 -0.290621
-0.54934 0.96947 -0.288286
-0.534587 0.974608 -0.299386
-0.529635 0.963341 -0.303519
-0.516564 0.971511 -0.313925
-0.518465 0.987976 -0.311118
-0.510461 0.975488 -0.319143
-0.50248 0.981187 -0.327065
-0.506515 0.996416 -0.322776
-0.48795 0.986675 -0.334924
-0.501084 1 -0.327518
-0.589642 0.932425 -0.29283
-0.58242 0.905091 -0.305218
-0.593287 0.88742 -0.291784
-0.579739 0.895056 -0.30279
-0.576812 0.884146 -0.297085
-0.601118 0.878605 -0.278956
-0.590664 0.873626 -0.282279
-0.604058 0.861373 -0.268258
-0.592767 0.858811 -0.270656
-0.58763 0.862334 -0.275434
-0.573224 0.870853 -0.285284
-0.601885 0.853283 -0.263775
-0.569695 0.857772 -0.273786
-0.566805 0.846978 -0.269657
-0.577299 0.823684 -0.264621
-0.562327 0.827199 -0.270289
-0.592515 0.818113 -0.261199
-0.588465 0.802828 -0.265356
-0.572932 0.807253 -0.266065
-0.585213 0.790611 -0.265077
-0.57498 0.788894 -0.266995
-0.568696 0.791294 -0.268627
-0.555852 0.815502 -0.274309
-0.554036 0.798883 -0.276826
-0.564769 0.780113 -0.271513
-0.549844 0.783085 -0.279767
-0.558042 0.762262 -0.278847
-0.545861 0.768044 -0.284504
-0.556012 0.747769 -0.285928
-0.542633 0.755737 -0.29571
-0.541503 0.751351 -0.304392
-0.554258 0.739003 -0.30812
-0.540584 0.747697 -0.317019
-0.552461 0.733653 -0.292955
-0.539249 0.743037 -0.325837
-0.550907 0.731709 -0.328006
-0.535519 0.736615 -0.32986
-0.534296 0.723812 -0.333361
-0.549779 0.71883 -0.29566
-0.581065 0.927975 -0.29571
-0.588182 0.926867 -0.297416
-0.572151 0.929491 -0.293859
-0.569123 0.915786 -0.302098
-0.584458 0.912762 -0.304367
-0.556474 0.933394 -0.293331
-0.552789 0.919432 -0.300621
-0.564289 0.89978 -0.304208
-0.561019 0.887604 -0.297466
-0.5485 0.90328 -0.302727
-0.545588 0.892424 -0.297229
-0.547585 0.936884 -0.295851
-0.541463 0.939709 -0.298515
-0.543464 0.922672 -0.302334
-0.537613 0.92515 -0.304391
-0.524843 0.949052 -0.309442
-0.5231 0.933269 -0.313843
-0.53288 0.913072 -0.30686
-0.527664 0.889794 -0.299867
-0.518807 0.917104 -0.315919
-0.513359 0.900746 -0.314448
-0.557671 0.875228 -0.284391
-0.547112 0.877668 -0.28565
-0.542294 0.88019 -0.288404
-0.508178 0.879864 -0.306649
-0.549831 0.855998 -0.276105
-0.541199 0.876099 -0.287003
-0.539681 0.870418 -0.285441
-0.537332 0.861612 -0.284754
-0.532527 0.841022 -0.285716
-0.547465 0.836999 -0.276608
-0.543348 0.821475 -0.2802
-0.542003 0.804889 -0.283063
-0.526797 0.829951 -0.289253
-0.524342 0.812707 -0.290017
-0.536604 0.872811 -0.288928
-0.523259 0.871313 -0.297965
-0.530741 0.866717 -0.292185
-0.51913 0.855807 -0.297428
-0.503939 0.861408 -0.305092
-0.513999 0.836546 -0.296345
-0.50999 0.821507 -0.294638
-0.499259 0.844715 -0.305033
-0.494125 0.824676 -0.295902
-0.512692 0.956872 -0.319613
-0.517732 0.936228 -0.317244
-0.5087 0.941799 -0.32427
-0.506356 0.961272 -0.325627
-0.498451 0.96598 -0.331406
-0.494152 0.948492 -0.332583
-0.509853 0.923016 -0.323744
-0.50447 0.925863 -0.326885
-0.502369 0.910201 -0.331348
-0.489429 0.93207 -0.331813
-0.485309 0.916535 -0.335378
-0.483301 0.971795 -0.335403
-0.47512 0.954485 -0.332684
-0.498277 0.896122 -0.338144
-0.481875 0.90348 -0.344815
-0.494461 0.882053 -0.345119
-0.50273 0.887587 -0.321905
-0.499858 0.873043 -0.328384
-0.500411 0.866187 -0.31358
-0.499937 0.869667 -0.320983
-0.498856 0.865655 -0.331621
-0.488813 0.866168 -0.350412
-0.497248 0.858429 -0.334861
-0.499217 0.862205 -0.324219
-0.49942 0.858797 -0.316818
-0.498046 0.854862 -0.327457
-0.498211 0.851465 -0.320056
-0.496524 0.844259 -0.323296
-0.494416 0.840519 -0.333939
-0.492619 0.844351 -0.341347
-0.494739 0.837079 -0.326537
-0.498098 0.848141 -0.312656
-0.495789 0.841101 -0.315899
-0.494203 0.838169 -0.308505
-0.493695 0.834003 -0.319141
-0.49109 0.831343 -0.311752
-0.484195 0.82647 -0.29698
-0.532185 0.793035 -0.287426
-0.530743 0.773973 -0.288771
-0.519201 0.793387 -0.290203
-0.51532 0.778798 -0.290427
-0.526882 0.759373 -0.29455
-0.523745 0.748137 -0.307876
-0.511159 0.763112 -0.293635
-0.507385 0.748825 -0.300155
-0.490931 0.812108 -0.329423
-0.488968 0.804146 -0.330994
-0.489645 0.807066 -0.339903
-0.491683 0.814884 -0.336269
-0.490712 0.811345 -0.327772
-0.5044 0.800546 -0.291802
-0.502247 0.792457 -0.291607
-0.499869 0.783521 -0.29184
-0.488731 0.804479 -0.291348
-0.486733 0.796971 -0.29151
-0.484302 0.787824 -0.292258
-0.488181 0.801749 -0.333408
-0.49554 0.767225 -0.293604
-0.491191 0.750862 -0.295208
-0.479727 0.770637 -0.291913
-0.48387 0.751906 -0.293245
-0.476733 0.759405 -0.290909
-0.520933 0.736594 -0.32131
-0.525484 0.722118 -0.332266
-0.519086 0.729597 -0.324916
-0.517429 0.722331 -0.328039
-0.513594 0.735395 -0.314386
-0.503272 0.733316 -0.303782
-0.512089 0.728142 -0.317626
-0.51116 0.720734 -0.320863
-0.499651 0.717924 -0.304707
-0.516359 0.714636 -0.33056
-0.523365 0.714136 -0.33354
-0.522075 0.709295 -0.333238
-0.520929 0.705007 -0.332099
-0.512458 0.704643 -0.327885
-0.510807 0.713174 -0.324098
-0.502727 0.700263 -0.313074
-0.507237 0.703116 -0.319945
-0.50987 0.694999 -0.322858
-0.504569 0.692818 -0.315789
-0.507434 0.684609 -0.318272
-0.49589 0.734829 -0.29869
-0.490112 0.743831 -0.295639
-0.464436 0.702552 -0.333992
-0.463474 0.709862 -0.331836
-0.460762 0.69957 -0.327378
-0.492834 0.833287 -0.337179
-0.490372 0.837295 -0.344589
-0.4934 0.829782 -0.329776
-0.491617 0.825956 -0.340417
-0.488042 0.830261 -0.347832
-0.49257 0.822348 -0.333013
-0.492297 0.826721 -0.32238
-0.489453 0.824125 -0.314992
-0.491575 0.819259 -0.325617
-0.488727 0.816663 -0.318228
-0.476557 0.813194 -0.303478
-0.488001 0.809203 -0.321464
-0.486238 0.802017 -0.324705
-0.474367 0.798468 -0.309954
-0.475043 0.791581 -0.29515
-0.476986 0.78917 -0.33121
-0.48018 0.795028 -0.345997
-0.469163 0.784545 -0.316442
-0.465456 0.770223 -0.322924
-0.469511 0.775851 -0.337708
-0.466168 0.782362 -0.300079
-0.466069 0.781854 -0.308701
-0.464116 0.774723 -0.295425
-0.462318 0.767652 -0.315423
-0.471445 0.763142 -0.289805
-0.463193 0.764651 -0.290663
-0.464293 0.779133 -0.301662
-0.461363 0.772258 -0.304907
-0.459249 0.765166 -0.30815
-0.460539 0.769123 -0.29751
-0.456809 0.762462 -0.300759
-0.455302 0.759509 -0.293365
-0.466601 0.754609 -0.329385
-0.456108 0.747088 -0.317282
-0.454742 0.735116 -0.319705
-0.462014 0.735688 -0.329819
-0.465438 0.739609 -0.335857
-0.436909 0.735647 -0.30593
-0.461966 0.729526 -0.331703
-0.460253 0.728292 -0.327984
-0.458658 0.725697 -0.32489
-0.460683 0.718859 -0.327542
-0.463946 0.721345 -0.334929
-0.456425 0.715695 -0.321327
-0.451156 0.725682 -0.317134
-0.447683 0.715494 -0.313311
-0.458159 0.708522 -0.323385
-0.45359 0.705227 -0.317293
-0.454759 0.698419 -0.319232
-0.434492 0.725985 -0.309952
-0.583891 0.785647 -0.265025
-0.57884 0.766735 -0.260595
-0.574856 0.75169 -0.265321
-0.574381 0.749897 -0.265904
-0.565507 0.738781 -0.271633
-0.570051 0.733791 -0.255577
-0.566338 0.731852 -0.256829
-0.551706 0.726176 -0.280464
-0.549418 0.721865 -0.262906
-0.550857 0.724221 -0.27121
-0.569179 0.730515 -0.255535
-0.565239 0.715626 -0.260629
-0.549191 0.718065 -0.264653
-0.562909 0.706757 -0.267829
-0.546389 0.707427 -0.271795
-0.561961 0.70314 -0.271411
-0.546507 0.707626 -0.287009
-0.545079 0.7136 -0.284652
-0.541094 0.663921 -0.253199
-0.53405 0.661321 -0.255118
-0.532576 0.65555 -0.270009
-0.520112 0.654196 -0.259753
-0.531046 0.650235 -0.242517
-0.530181 0.646872 -0.249463
-0.534575 0.663404 -0.248261
-0.536252 0.669937 -0.233588
-0.523398 0.661922 -0.238472
-0.217136 -0.182515 -0.127976
-0.474962 0.752764 -0.289944
-0.494194 0.699202 -0.303704
-0.496628 0.679732 -0.304609
-0.490581 0.685641 -0.302818
-0.491877 0.690506 -0.30329
-0.489491 0.681554 -0.302269
-0.486686 0.733925 -0.295456
-0.482266 0.717304 -0.296449
-0.472064 0.743625 -0.289418
-0.470535 0.736113 -0.290867
-0.466529 0.720988 -0.295402
-0.468508 0.728463 -0.292927
-0.485947 0.699675 -0.29994
-0.473316 0.702153 -0.297807
-0.484163 0.692138 -0.300728
-0.481455 0.682793 -0.300319
-0.475576 0.692148 -0.297408
-0.475511 0.682835 -0.296944
-0.474035 0.686385 -0.295615
-0.472902 0.682155 -0.293922
-0.461832 0.705316 -0.297836
-0.469201 0.693224 -0.293292
-0.470543 0.680803 -0.289564
-0.466617 0.689404 -0.285597
-0.460134 0.697 -0.292754
-0.459073 0.693127 -0.285696
-0.466449 0.678538 -0.282181
-0.464903 0.683719 -0.280173
-0.463221 0.677435 -0.277862
-0.457784 0.688383 -0.27931
-0.459408 0.677058 -0.27481
-0.455276 0.679052 -0.273359
-0.466627 0.753046 -0.285971
-0.459031 0.755786 -0.284962
-0.464267 0.744063 -0.284633
-0.46154 0.735997 -0.285367
-0.459766 0.743959 -0.281779
-0.456983 0.748163 -0.280327
-0.453692 0.735794 -0.280345
-0.459801 0.728751 -0.288487
-0.457395 0.721867 -0.292017
-0.449992 0.721778 -0.287507
-0.454541 0.707296 -0.298447
-0.446729 0.709017 -0.298041
-0.453941 0.705036 -0.298899
-0.452004 0.697494 -0.315585
-0.446151 0.705482 -0.308436
-0.44758 0.701276 -0.301229
-0.448602 0.696704 -0.311858
-0.444296 0.694496 -0.304475
-0.444509 0.687731 -0.289674
-0.444615 0.691057 -0.297074
-0.432231 0.717521 -0.308002
-0.446987 0.680364 -0.274863
-0.21588 -0.174574 -0.125092
-0.210277 -0.1764 -0.117607
-0.211231 -0.184344 -0.120945
-0.214178 -0.19281 -0.124225
-0.20792 -0.185143 -0.117252
-0.205943 -0.193849 -0.115656
-0.461492 0.692327 -0.329837
-0.458692 0.691065 -0.325422
-0.457119 0.683877 -0.324353
-0.462043 0.684526 -0.333068
-0.45838 0.674492 -0.328916
-0.462957 0.677219 -0.3376
-0.458245 0.666875 -0.33215
-0.46237 0.673289 -0.337777
-0.461611 0.668829 -0.338425
-0.457496 0.659419 -0.335386
-0.456546 0.690289 -0.322458
-0.203603 -0.201269 -0.111349
-0.52771 0.637326 -0.265993
-0.204858 -0.178348 -0.110338
-0.20076 -0.180546 -0.102767
-0.205044 -0.186052 -0.11357
-0.501402 0.663507 -0.310976
-0.51358 0.646252 -0.315513
-0.496802 0.646118 -0.30883
-0.500825 0.671797 -0.30747
-0.495276 0.670567 -0.29947
-0.499788 0.661065 -0.303308
-0.492723 0.660481 -0.295311
-0.487035 0.672364 -0.299851
-0.486305 0.660898 -0.296572
-0.496345 0.650973 -0.299154
-0.495351 0.643584 -0.302392
-0.489579 0.650607 -0.294402
-0.491486 0.641258 -0.295007
-0.488343 0.645978 -0.293381
-0.486425 0.638841 -0.289053
-0.481763 0.652641 -0.294333
-0.480863 0.649283 -0.292857
-0.478455 0.64133 -0.287737
-0.509915 0.632644 -0.305314
-0.494708 0.638315 -0.304693
-0.491854 0.627514 -0.309588
-0.493774 0.613386 -0.315332
-0.489344 0.617874 -0.322651
-0.482305 0.624181 -0.311321
-0.474829 0.626163 -0.320961
-0.472291 0.619356 -0.314975
-0.474193 0.623685 -0.326641
-0.507931 0.625414 -0.290965
-0.493022 0.632213 -0.289832
-0.4939 0.635396 -0.297202
-0.488696 0.616119 -0.279795
-0.504417 0.612396 -0.279271
-0.490059 0.620771 -0.309338
-0.487538 0.61131 -0.308593
-0.475542 0.631089 -0.283563
-0.471953 0.615982 -0.281392
-0.479731 0.613379 -0.308546
-0.479379 0.675008 -0.298976
-0.476 0.663544 -0.296454
-0.470793 0.673856 -0.292278
-0.453722 0.672383 -0.321434
-0.45246 0.664494 -0.323525
-0.466931 0.662683 -0.289411
-0.473301 0.653661 -0.292029
-0.47102 0.643793 -0.286748
-0.465339 0.65384 -0.287403
-0.464211 0.649628 -0.285836
-0.462635 0.643739 -0.283662
-0.466001 0.671003 -0.285416
-0.460645 0.667987 -0.278607
-0.459484 0.661427 -0.280608
-0.452533 0.668759 -0.272612
-0.450792 0.66117 -0.273159
-0.461698 0.653486 -0.2845
-0.456655 0.652728 -0.279887
-0.457608 0.643566 -0.28035
-0.455415 0.64809 -0.278694
-0.454043 0.64296 -0.276934
-0.453871 0.652214 -0.277132
-0.447472 0.649761 -0.271255
-0.45049 0.642106 -0.27298
-0.467972 0.623607 -0.32284
-0.452299 0.657449 -0.328008
-0.449589 0.656864 -0.32514
-0.452967 0.649616 -0.331239
-0.456738 0.651989 -0.338353
-0.447465 0.64886 -0.326362
-0.454665 0.644407 -0.333241
-0.455689 0.641237 -0.33446
-0.456796 0.644297 -0.341856
-0.45346 0.639927 -0.33027
-0.452489 0.636312 -0.328096
-0.459096 0.629574 -0.330776
-0.458213 0.632912 -0.337683
-0.446108 0.643772 -0.325689
-0.449271 0.639592 -0.327087
-0.450603 0.629272 -0.325215
-0.445047 0.639798 -0.325079
-0.440619 0.630467 -0.323482
-0.468271 0.633524 -0.282909
-0.465647 0.623688 -0.281422
-0.461343 0.63891 -0.281881
-0.459958 0.633737 -0.280154
-0.458401 0.625634 -0.278677
-0.464564 0.619628 -0.280832
-0.454362 0.633422 -0.276196
-0.452593 0.63755 -0.274659
-0.498592 0.590614 -0.272504
-0.478947 0.595307 -0.27211
-0.476134 0.600372 -0.276332
-0.468584 0.603297 -0.27845
-0.444725 0.639508 -0.26693
-0.463194 0.614497 -0.279832
-0.460652 0.604962 -0.278885
-0.455154 0.615719 -0.277842
-0.452749 0.606663 -0.279027
-0.451333 0.632837 -0.27314
-0.448325 0.624218 -0.272491
-0.447085 0.632005 -0.268827
-0.442548 0.631362 -0.264765
-0.440694 0.624341 -0.268313
-0.447115 0.616946 -0.275862
-0.445303 0.610073 -0.279762
-0.439973 0.621539 -0.274076
-0.439508 0.619735 -0.27758
-0.437314 0.614599 -0.285093
-0.485602 0.603707 -0.329454
-0.468985 0.610953 -0.335757
-0.466556 0.594791 -0.338923
-0.483919 0.597759 -0.305447
-0.4885 0.592773 -0.307019
-0.485276 0.602833 -0.307214
-0.482616 0.592888 -0.303842
-0.486767 0.57439 -0.305692
-0.480489 0.584935 -0.301412
-0.477905 0.57521 -0.302334
-0.477537 0.605146 -0.307806
-0.475088 0.596437 -0.306783
-0.470359 0.607169 -0.312329
-0.466757 0.601482 -0.313558
-0.468258 0.590506 -0.310338
-0.465753 0.592191 -0.312597
-0.46353 0.584185 -0.313518
-0.476345 0.585 -0.302903
-0.472736 0.587141 -0.305525
-0.47045 0.578127 -0.306592
-0.475829 0.567384 -0.30398
-0.468163 0.571709 -0.309051
-0.470969 0.560114 -0.305224
-0.47458 0.562696 -0.303713
-0.466402 0.563277 -0.309542
-0.460664 0.5769 -0.316133
-0.463378 0.565487 -0.312657
-0.459428 0.568358 -0.316688
-0.463726 0.554515 -0.307698
-0.456272 0.559951 -0.315537
-0.454185 0.549305 -0.311556
-0.458645 0.627827 -0.341652
-0.462968 0.614027 -0.318349
-0.457447 0.623601 -0.32407
-0.455776 0.617355 -0.322057
-0.452256 0.609456 -0.321587
-0.459118 0.598699 -0.343211
-0.449574 0.62542 -0.32422
-0.448141 0.620047 -0.323546
-0.445862 0.61148 -0.323438
-0.440375 0.622259 -0.323901
-0.438148 0.613883 -0.324243
-0.444903 0.607881 -0.323356
-0.436863 0.609065 -0.323794
-0.460808 0.604931 -0.3177
-0.458616 0.596041 -0.318035
-0.456488 0.588669 -0.319547
-0.451186 0.600118 -0.321594
-0.453355 0.590172 -0.321034
-0.449017 0.591952 -0.322435
-0.443569 0.602875 -0.323235
-0.441245 0.594143 -0.322738
-0.435731 0.604824 -0.322968
-0.433729 0.595421 -0.320349
-0.462112 0.578079 -0.339701
-0.454425 0.580888 -0.321296
-0.453585 0.571688 -0.320629
-0.44784 0.587525 -0.322794
-0.446792 0.583583 -0.322793
-0.44299 0.574121 -0.320467
-0.449586 0.562748 -0.318693
-0.448533 0.558814 -0.317207
-0.446909 0.552744 -0.315182
-0.441306 0.563059 -0.317359
-0.439105 0.554823 -0.315219
-0.440405 0.590998 -0.322195
-0.438772 0.584884 -0.320987
-0.437101 0.578635 -0.318985
-0.430884 0.585085 -0.315767
-0.436101 0.574897 -0.317516
-0.428571 0.578105 -0.311387
-0.430342 0.574279 -0.312796
-0.426335 0.570966 -0.306703
-0.434257 0.568013 -0.314986
-0.437045 0.564841 -0.316001
-0.433412 0.564851 -0.313905
-0.430389 0.554929 -0.312388
-0.427129 0.564126 -0.308643
-0.494808 0.571032 -0.262445
-0.477147 0.575944 -0.262373
-0.465807 0.592998 -0.274304
-0.463402 0.583985 -0.272996
-0.458504 0.564654 -0.270164
-0.460911 0.5746 -0.274541
-0.488489 0.552862 -0.259195
-0.47276 0.556578 -0.258222
-0.463639 0.560036 -0.260537
-0.478983 0.543615 -0.293553
-0.471712 0.551981 -0.299756
-0.470595 0.547812 -0.297987
-0.467571 0.539416 -0.296037
-0.469941 0.535016 -0.289494
-0.475985 0.536821 -0.288027
-0.466459 0.532237 -0.282089
-0.475503 0.535139 -0.279976
-0.473413 0.558328 -0.302709
-0.468495 0.549764 -0.301068
-0.461231 0.54406 -0.304306
-0.484615 0.538164 -0.268016
-0.476938 0.540751 -0.26598
-0.470672 0.548708 -0.259762
-0.468947 0.542154 -0.264417
-0.476402 0.53868 -0.269559
-0.483516 0.533927 -0.274882
-0.475778 0.536242 -0.275478
-0.482873 0.531417 -0.280689
-0.466963 0.537151 -0.271552
-0.462822 0.550617 -0.259399
-0.460885 0.543296 -0.262237
-0.456516 0.55826 -0.263607
-0.455237 0.553487 -0.26131
-0.456874 0.543741 -0.260881
-0.4537 0.547741 -0.259562
-0.452759 0.544207 -0.259511
-0.459217 0.536946 -0.267377
-0.45849 0.531001 -0.273957
-0.45398 0.536857 -0.264127
-0.449136 0.5305 -0.267382
-0.450773 0.536707 -0.261927
-0.458462 0.596741 -0.27814
-0.457564 0.587916 -0.278266
-0.45086 0.59955 -0.279905
-0.448686 0.59137 -0.280712
-0.455308 0.58488 -0.278955
-0.444475 0.583764 -0.280396
-0.453942 0.579757 -0.278275
-0.450975 0.570839 -0.276392
-0.443544 0.572096 -0.277549
-0.443317 0.601339 -0.282386
-0.441078 0.594158 -0.282427
-0.436047 0.606587 -0.286798
-0.435448 0.597433 -0.286372
-0.438059 0.582823 -0.281836
-0.428562 0.582556 -0.289777
-0.432293 0.579007 -0.284121
-0.436288 0.576192 -0.28024
-0.449345 0.562592 -0.271431
-0.441362 0.561315 -0.273356
-0.426893 0.571257 -0.288581
-0.43356 0.568079 -0.279381
-0.431309 0.556119 -0.276693
-0.426343 0.561928 -0.283211
-0.424749 0.564127 -0.287136
-0.424559 0.563129 -0.304943
-0.421922 0.554746 -0.305031
-0.423281 0.558643 -0.284956
-0.425473 0.551151 -0.279048
-0.422048 0.554038 -0.283421
-0.419644 0.54531 -0.281883
-0.451745 0.556114 -0.26507
-0.448332 0.558822 -0.269057
-0.447173 0.55451 -0.266281
-0.444382 0.547314 -0.260471
-0.438268 0.551209 -0.269166
-0.436263 0.544976 -0.262763
-0.442202 0.535948 -0.257058
-0.44035 0.529606 -0.260303
-0.435281 0.541397 -0.255573
-0.433516 0.534839 -0.251031
-0.433907 0.527836 -0.252643
