ply
format ascii 1.0
comment generated by io_xyz.hpp
element vertex 1983
property float x
property float y
property float z
end_header
-0.0096 0.7725 -0.0115
0.0029 0.7301 -0.0197
0.0308 -0.4249 -0.0660
-0.0012 0.7465 -0.0167
0.0009 0.7386 -0.0182
0.0034 0.1425 -0.0738
0.0042 0.1380 -0.0747
0.0045 0.1366 -0.0749
0.0032 0.1435 -0.0736
0.0046 0.1362 -0.0750
0.0035 0.1413 -0.0740
0.0048 0.1353 -0.0753
0.0055 0.1323 -0.0759
0.0322 -0.4111 -0.0671
0.0279 -0.8929 0.0694
0.0283 -0.8941 0.0702
0.0319 -0.4134 -0.0669
-0.0015 0.7478 -0.0165
-0.0016 0.7481 -0.0164
-0.0006 0.7445 -0.0171
0.0009 0.7385 -0.0182
0.0026 0.7316 -0.0194
0.0005 0.7399 -0.0179
0.0057 0.1314 -0.0761
0.0101 0.1147 -0.0800
0.0098 0.1160 -0.0797
0.0055 0.1322 -0.0759
0.0089 0.1190 -0.0789
0.0112 0.1109 -0.0809
0.0316 -0.8974 0.0712
0.0325 -0.4076 -0.0674
0.0098 0.1158 -0.0797
0.0120 0.1077 -0.0815
0.0340 -0.8985 0.0710
0.0402 -0.9001 0.0694
0.0453 -0.8988 0.0661
-0.0116 0.7806 -0.0101
-0.0077 0.7688 -0.0125
-0.0118 0.7813 -0.0100
-0.0102 0.7765 -0.0109
0.0016 0.1603 -0.0713
0.0413 -0.8703 0.0465
0.0360 -0.3723 -0.0702
0.0281 -0.8919 0.0685
0.0279 -0.8924 0.0690
0.0283 -0.8922 0.0687
0.0281 -0.8932 0.0695
0.0285 -0.8939 0.0699
0.0503 -0.8657 0.0389
0.0495 -0.8648 0.0387
0.0463 -0.8673 0.0419
0.0347 -0.3851 -0.0692
0.0286 -0.8943 0.0701
0.0286 -0.8944 0.0702
0.0300 -0.8955 0.0705
0.0305 -0.8962 0.0708
0.0296 -0.8953 0.0705
-0.0075 0.7680 -0.0126
-0.0065 0.7649 -0.0133
-0.0046 0.7585 -0.0145
-0.0034 0.7546 -0.0152
-0.0034 0.7545 -0.0153
0.0030 0.1446 -0.0735
0.0534 -0.8716 0.0418
0.0531 -0.8715 0.0418
0.0530 -0.8714 0.0418
0.0524 -0.8696 0.0407
0.0519 -0.8687 0.0404
0.0362 -0.3699 -0.0704
0.0323 -0.8972 0.0707
0.0327 -0.8975 0.0708
0.0344 -0.8980 0.0704
0.0352 -0.8984 0.0703
0.0395 -0.8995 0.0692
-0.0092 0.7735 -0.0116
-0.0054 0.7612 -0.0140
-0.0082 0.7704 -0.0122
0.0037 0.1401 -0.0743
0.0342 -0.3904 -0.0687
0.0396 -0.8991 0.0689
0.0441 -0.8983 0.0662
-0.0194 0.8020 -0.0054
-0.0158 0.7931 -0.0075
0.0405 -0.3242 -0.0739
-0.0216 0.8074 -0.0041
-0.0182 0.7991 -0.0061
-0.0143 0.7888 -0.0084
0.0042 0.2011 -0.0694
0.0447 -0.8664 0.0422
0.0467 -0.8636 0.0392
0.0426 -0.8646 0.0420
0.0454 -0.8575 0.0357
0.0445 -0.8616 0.0390
0.0391 -0.3415 -0.0725
0.0284 -0.8908 0.0676
0.0286 -0.8919 0.0683
0.0284 -0.8925 0.0688
0.0284 -0.8908 0.0676
0.0504 -0.8645 0.0381
0.0494 -0.8638 0.0381
0.0491 -0.8647 0.0388
0.0291 -0.8933 0.0692
0.0290 -0.8916 0.0680
0.0298 -0.8932 0.0688
0.0295 -0.8935 0.0691
0.0301 -0.8944 0.0696
-0.0159 0.7938 -0.0074
-0.0138 0.7878 -0.0087
-0.0126 0.7841 -0.0094
-0.0094 0.7740 -0.0115
-0.0089 0.7724 -0.0118
0.0039 0.1911 -0.0701
0.0532 -0.8707 0.0412
0.0520 -0.8685 0.0402
0.0527 -0.8689 0.0402
0.0513 -0.8656 0.0384
0.0510 -0.8657 0.0386
0.0510 -0.8637 0.0373
0.0521 -0.8664 0.0386
0.0530 -0.8689 0.0400
0.0399 -0.3336 -0.0732
0.0310 -0.8940 0.0689
0.0325 -0.8963 0.0700
0.0358 -0.8955 0.0678
0.0372 -0.8971 0.0684
-0.0127 0.7843 -0.0094
-0.0114 0.7804 -0.0102
0.0042 0.2031 -0.0692
0.0535 -0.8689 0.0399
0.0436 -0.8952 0.0641
0.0478 -0.8940 0.0613
0.0431 -0.8973 0.0659
-0.0249 0.8134 -0.0024
-0.0264 0.8174 -0.0015
-0.0229 0.8101 -0.0034
-0.0243 0.8133 -0.0026
-0.0218 0.8079 -0.0040
0.0458 -0.2769 -0.0775
-0.0260 0.8168 -0.0017
-0.0230 0.8105 -0.0034
0.0041 0.2619 -0.0642
0.0452 -0.2811 -0.0772
0.0406 -0.8416 0.0281
0.0418 -0.8417 0.0275
0.0419 -0.8478 0.0314
0.0434 -0.8545 0.0349
0.0427 -0.8592 0.0383
0.0447 -0.8491 0.0307
0.0293 -0.8902 0.0667
0.0311 -0.8853 0.0622
0.0296 -0.8899 0.0664
0.0297 -0.8898 0.0663
0.0301 -0.8910 0.0670
0.0298 -0.8909 0.0670
-0.0164 0.7950 -0.0071
0.0041 0.2627 -0.0641
0.0441 -0.2907 -0.0765
0.0316 -0.8891 0.0649
0.0305 -0.8920 0.0676
0.0349 -0.8903 0.0643
-0.0187 0.8010 -0.0058
0.0495 -0.8556 0.0326
0.0484 -0.8522 0.0309
0.0513 -0.8599 0.0346
0.0516 -0.8621 0.0359
0.0512 -0.8626 0.0364
0.0518 -0.8635 0.0368
0.0041 0.2623 -0.0642
0.0520 -0.8649 0.0377
0.0464 -0.8934 0.0615
0.0472 -0.8915 0.0596
0.0493 -0.2562 -0.0790
-0.0308 0.8250 0.0007
-0.0304 0.8244 0.0005
-0.0284 0.8200 -0.0006
0.0049 0.3115 -0.0605
0.0493 -0.2242 -0.0817
0.0477 -0.2111 -0.0829
0.0370 -0.8205 0.0175
0.0352 -0.8109 0.0132
0.0385 -0.8270 0.0204
0.0386 -0.8290 0.0216
0.0395 -0.8334 0.0237
0.0397 -0.8311 0.0221
0.0409 -0.8350 0.0238
0.0382 -0.8746 0.0510
-0.0252 0.8173 -0.0019
-0.0217 0.8087 -0.0040
0.0049 0.3087 -0.0607
0.0501 -0.2243 -0.0816
0.0426 -0.8685 0.0445
0.0365 -0.8790 0.0550
0.0401 -0.8256 0.0189
0.0427 -0.8335 0.0223
0.0437 -0.8367 0.0237
0.0445 -0.8397 0.0250
0.0459 -0.8438 0.0269
0.0475 -0.8489 0.0293
0.0487 -0.8524 0.0309
0.0460 -0.8446 0.0273
0.0505 -0.8568 0.0329
0.0504 -0.2262 -0.0814
-0.0362 0.8354 0.0036
0.0054 0.3498 -0.0575
0.0326 -0.7900 0.0045
0.0334 -0.7980 0.0077
0.0331 -0.7951 0.0066
0.0335 -0.7994 0.0084
0.0347 -0.8084 0.0122
0.0344 -0.8062 0.0112
0.0355 -0.8132 0.0142
0.0568 -0.1660 -0.0860
-0.0277 0.8230 -0.0005
-0.0259 0.8188 -0.0015
0.0054 0.3472 -0.0577
0.0351 -0.8033 0.0097
0.0363 -0.8100 0.0125
0.0389 -0.8206 0.0168
0.0373 -0.8144 0.0142
0.0419 -0.8306 0.0210
0.0422 -0.8377 0.0248
0.0572 -0.1860 -0.0843
0.0361 -0.8086 0.0119
0.0398 -0.8237 0.0181
-0.0370 0.8365 0.0040
0.0319 -0.7766 -0.0006
0.0318 -0.7574 -0.0075
0.0318 -0.7690 -0.0034
0.0320 -0.7792 0.0003
0.0060 0.3867 -0.0546
0.0319 -0.7742 -0.0016
0.0322 -0.7838 0.0021
0.0451 -0.1241 -0.0897
0.0464 -0.1288 -0.0894
0.0448 -0.1232 -0.0897
0.0491 -0.1384 -0.0886
0.0508 -0.1446 -0.0881
0.0519 -0.1477 -0.0878
0.0467 -0.1302 -0.0893
0.0472 -0.1314 -0.0892
0.0506 -0.1428 -0.0883
0.0496 -0.1395 -0.0885
0.0526 -0.1487 -0.0877
-0.0326 0.8335 0.0022
-0.0305 0.8286 0.0010
-0.0322 0.8328 0.0020
0.0060 0.3866 -0.0546
0.0322 -0.7680 -0.0037
0.0327 -0.7842 0.0022
0.0338 -0.7946 0.0063
0.0579 -0.1577 -0.0866
0.0543 -0.1436 -0.0878
0.0564 -0.1501 -0.0872
0.0584 -0.1563 -0.0867
0.0574 -0.1538 -0.0869
0.0594 -0.1634 -0.0860
0.0324 -0.7768 -0.0005
0.0325 -0.7806 0.0009
0.0324 -0.7777 -0.0002
0.0326 -0.7831 0.0018
0.0331 -0.7888 0.0040
0.0579 -0.1536 -0.0869
0.0308 -0.7374 -0.0145
0.0298 -0.7306 -0.0170
0.0313 -0.7436 -0.0123
0.0317 -0.7495 -0.0102
0.0317 -0.7571 -0.0076
0.0317 -0.7627 -0.0057
0.0068 0.4264 -0.0515
0.0437 -0.1182 -0.0901
0.0424 -0.1126 -0.0904
0.0425 -0.1128 -0.0903
0.0437 -0.1181 -0.0901
0.0437 -0.1184 -0.0900
0.0428 -0.1146 -0.0902
0.0452 -0.1243 -0.0897
-0.0336 0.8359 0.0028
-0.0339 0.8365 0.0030
-0.0305 0.8288 0.0010
0.0065 0.4146 -0.0524
0.0334 -0.7385 -0.0131
0.0332 -0.7418 -0.0121
0.0329 -0.7497 -0.0097
0.0331 -0.7459 -0.0108
0.0503 -0.1317 -0.0889
0.0519 -0.1359 -0.0885
0.0532 -0.1400 -0.0881
0.0530 -0.1397 -0.0882
0.0549 -0.1450 -0.0877
0.0535 -0.1412 -0.0881
0.0561 -0.1487 -0.0874
0.0323 -0.7594 -0.0066
0.0323 -0.7606 -0.0062
0.0323 -0.7650 -0.0047
0.0323 -0.7702 -0.0029
0.0077 0.4613 -0.0489
0.0220 -0.7055 -0.0277
0.0241 -0.7110 -0.0252
0.0243 -0.7108 -0.0252
0.0302 -0.7322 -0.0163
0.0259 -0.7159 -0.0230
0.0282 -0.7242 -0.0196
0.0081 0.4752 -0.0478
0.0402 -0.0938 -0.0909
0.0404 -0.0981 -0.0909
0.0407 -0.1006 -0.0908
0.0411 -0.1040 -0.0907
0.0419 -0.1085 -0.0905
0.0421 -0.1108 -0.0904
0.0419 -0.1101 -0.0905
0.0411 -0.1049 -0.0907
0.0074 0.4505 -0.0497
0.0313 -0.7209 -0.0193
0.0325 -0.7274 -0.0169
0.0317 -0.7225 -0.0187
0.0323 -0.7255 -0.0175
0.0329 -0.7309 -0.0157
0.0331 -0.7333 -0.0148
0.0426 -0.1035 -0.0906
0.0451 -0.1137 -0.0901
0.0447 -0.1130 -0.0901
0.0475 -0.1225 -0.0895
0.0453 -0.1151 -0.0900
0.0485 -0.1261 -0.0893
0.0497 -0.1295 -0.0890
0.0096 -0.6793 -0.0401
0.0147 -0.6896 -0.0352
0.0087 0.4965 -0.0461
0.0135 -0.6873 -0.0363
0.0172 -0.6949 -0.0327
0.0149 -0.6902 -0.0350
0.0180 -0.6965 -0.0319
0.0195 -0.6998 -0.0303
0.0088 0.5012 -0.0457
0.0383 -0.0648 -0.0911
0.0393 -0.0778 -0.0911
0.0389 -0.0715 -0.0911
0.0397 -0.0846 -0.0910
0.0399 -0.0871 -0.0910
0.0397 -0.0830 -0.0910
0.0084 0.4858 -0.0470
0.0271 -0.7087 -0.0246
0.0295 -0.7146 -0.0219
0.0249 -0.7039 -0.0269
0.0275 -0.7097 -0.0242
0.0298 -0.7156 -0.0215
0.0286 -0.7125 -0.0229
0.0303 -0.7173 -0.0208
0.0394 -0.0765 -0.0911
0.0395 -0.0775 -0.0911
0.0404 -0.0870 -0.0909
0.0417 -0.0974 -0.0907
0.0415 -0.0965 -0.0908
0.0438 -0.1087 -0.0903
0.0054 -0.6697 -0.0443
0.0084 -0.6765 -0.0413
0.0069 -0.6734 -0.0427
0.0096 -0.6793 -0.0401
0.0110 0.5559 -0.0419
0.0049 -0.6677 -0.0450
0.0072 -0.6735 -0.0425
0.0082 -0.6756 -0.0416
0.0113 -0.6819 -0.0387
0.0083 -0.6761 -0.0415
0.0110 0.5570 -0.0418
0.0351 -0.0346 -0.0911
0.0374 -0.0548 -0.0911
0.0339 -0.0256 -0.0911
0.0354 -0.0371 -0.0911
0.0368 -0.0495 -0.0911
0.0364 -0.0456 -0.0911
0.0377 -0.0578 -0.0911
0.0104 0.5425 -0.0428
0.0214 -0.6970 -0.0303
0.0197 -0.6940 -0.0319
0.0238 -0.7017 -0.0280
0.0212 -0.6968 -0.0304
0.0243 -0.7026 -0.0275
0.0258 -0.7058 -0.0260
0.0367 -0.0487 -0.0911
0.0378 -0.0585 -0.0911
0.0367 -0.0486 -0.0911
0.0378 -0.0588 -0.0911
0.0386 -0.0673 -0.0911
0.0387 -0.0687 -0.0911
0.0111 0.6067 -0.0364
0.0021 -0.6473 -0.0501
0.0117 0.6032 -0.0374
0.0020 -0.6525 -0.0493
0.0117 0.6137 -0.0369
0.0323 -0.0139 -0.0909
0.0309 -0.0039 -0.0907
0.0297 0.0045 -0.0905
0.0301 0.0022 -0.0905
0.0311 -0.0055 -0.0907
0.0330 -0.0186 -0.0910
0.0144 0.6253 -0.0383
0.0089 -0.6719 -0.0420
0.0317 -0.0097 -0.0908
0.0329 -0.0180 -0.0910
0.0329 -0.0185 -0.0910
0.0344 -0.0293 -0.0911
0.0344 -0.0293 -0.0911
0.0353 -0.0368 -0.0911
0.0160 0.6513 -0.0359
0.0137 -0.6029 -0.0498
0.0161 0.6500 -0.0363
0.0236 0.0462 -0.0883
0.0250 0.0368 -0.0889
0.0263 0.0278 -0.0894
0.0269 0.0243 -0.0896
0.0281 0.0159 -0.0900
0.0287 0.0120 -0.0902
0.0278 0.0182 -0.0899
0.0145 -0.6073 -0.0488
0.0158 0.6561 -0.0353
0.0119 -0.6169 -0.0490
0.0279 0.0172 -0.0899
0.0296 0.0058 -0.0904
0.0275 0.0203 -0.0898
0.0290 0.0095 -0.0903
0.0302 0.0014 -0.0906
0.0306 -0.0013 -0.0906
0.0137 0.6727 -0.0316
0.0118 0.6845 -0.0290
0.0142 0.6702 -0.0323
0.0130 0.6777 -0.0306
0.0150 0.6638 -0.0337
0.0148 -0.5653 -0.0550
0.0139 0.6718 -0.0321
0.0148 0.6656 -0.0334
0.0146 0.6672 -0.0331
0.0148 0.6657 -0.0334
0.0154 0.6613 -0.0343
0.0148 0.6661 -0.0333
0.0148 0.6658 -0.0334
0.0153 0.6619 -0.0342
0.0195 0.0719 -0.0866
0.0179 0.0811 -0.0857
0.0212 0.0613 -0.0873
0.0205 0.0655 -0.0870
0.0228 0.0514 -0.0880
0.0205 0.0661 -0.0870
0.0224 0.0534 -0.0879
0.0232 0.0483 -0.0882
0.0153 -0.5629 -0.0551
0.0144 0.6688 -0.0327
0.0148 0.6661 -0.0333
0.0152 0.6629 -0.0340
0.0143 0.6696 -0.0325
0.0144 0.6691 -0.0326
0.0150 0.6642 -0.0337
0.0151 0.6634 -0.0339
0.0145 0.6679 -0.0329
0.0151 0.6636 -0.0338
0.0147 0.6669 -0.0331
0.0135 -0.5785 -0.0537
0.0218 0.0573 -0.0876
0.0233 0.0480 -0.0882
0.0252 0.0357 -0.0889
0.0230 0.0495 -0.0881
0.0241 0.0427 -0.0885
0.0249 0.0372 -0.0889
0.0260 0.0301 -0.0893
0.0261 0.0297 -0.0893
0.0124 0.6812 -0.0298
0.0133 0.6757 -0.0312
0.0155 0.0931 -0.0842
0.0227 -0.5053 -0.0593
0.0127 0.6793 -0.0304
0.0133 0.6759 -0.0311
0.0135 0.6744 -0.0315
0.0138 0.6725 -0.0319
0.0144 0.6692 -0.0326
0.0144 0.6688 -0.0327
0.0147 0.0967 -0.0837
0.0173 0.0848 -0.0854
0.0147 0.0969 -0.0836
0.0165 0.0884 -0.0849
0.0167 0.0877 -0.0850
0.0167 0.0877 -0.0850
0.0190 0.0749 -0.0863
0.0245 -0.4864 -0.0610
0.0121 0.6827 -0.0296
0.0134 0.6750 -0.0313
0.0137 0.6734 -0.0317
0.0135 0.6745 -0.0314
0.0124 0.6809 -0.0300
0.0126 0.6796 -0.0303
0.0138 0.6725 -0.0319
0.0234 -0.4978 -0.0600
0.0173 0.0847 -0.0854
0.0183 0.0794 -0.0860
0.0180 0.0810 -0.0858
0.0191 0.0747 -0.0864
0.0192 0.0741 -0.0864
0.0204 0.0665 -0.0870
0.0203 0.0668 -0.0870
-0.0079 0.7677 -0.0125
-0.0026 0.7508 -0.0158
-0.0005 0.7433 -0.0172
-0.0096 0.7723 -0.0115
0.0072 0.1251 -0.0774
0.0090 0.1185 -0.0790
0.0113 0.1098 -0.0810
0.0263 -0.4696 -0.0623
0.0077 0.7072 -0.0240
0.0084 0.1205 -0.0785
0.0110 0.1113 -0.0807
0.0116 0.1089 -0.0812
0.0297 -0.4362 -0.0651
0.0281 -0.4528 -0.0637
0.0059 0.7164 -0.0221
0.0070 0.7108 -0.0232
0.0086 0.7025 -0.0250
0.0086 0.7026 -0.0250
0.0120 0.6833 -0.0294
0.0142 0.0991 -0.0832
0.0136 0.1013 -0.0828
0.0147 0.0969 -0.0836
0.0151 0.0951 -0.0839
0.0157 0.0922 -0.0844
0.0161 0.0904 -0.0846
0.0168 0.0869 -0.0851
0.0163 0.0894 -0.0848
-0.0099 0.7735 -0.0113
0.0023 0.1495 -0.0726
0.0025 0.1474 -0.0729
0.0050 0.1342 -0.0755
0.0291 -0.4421 -0.0646
0.0036 0.7273 -0.0201
0.0049 0.7212 -0.0213
0.0057 0.7173 -0.0220
0.0036 0.1406 -0.0741
0.0028 0.1454 -0.0733
0.0041 0.1384 -0.0746
0.0311 -0.4217 -0.0663
0.0327 -0.4057 -0.0676
-0.0001 0.7425 -0.0175
-0.0008 0.7449 -0.0170
0.0043 0.7239 -0.0208
0.0048 0.7220 -0.0211
0.0042 0.1378 -0.0747
0.0061 0.1295 -0.0765
0.0087 0.1195 -0.0788
0.0050 0.1344 -0.0754
0.0076 0.1235 -0.0778
0.0306 -0.4277 -0.0658
0.0326 -0.4065 -0.0675
0.0016 0.1630 -0.0710
0.0381 -0.8738 0.0505
0.0348 -0.8778 0.0550
0.0365 -0.3673 -0.0706
-0.0060 0.7633 -0.0136
-0.0052 0.7605 -0.0141
-0.0028 0.7524 -0.0157
-0.0026 0.7516 -0.0158
0.0018 0.1557 -0.0718
0.0353 -0.3787 -0.0697
0.0564 -0.8857 0.0509
0.0568 -0.8860 0.0509
0.0564 -0.8851 0.0504
0.0566 -0.8859 0.0509
0.0549 -0.8750 0.0437
0.0551 -0.8746 0.0434
0.0545 -0.8731 0.0425
0.0539 -0.8745 0.0437
0.0551 -0.8749 0.0436
-0.0332 0.8281 0.0018
-0.0258 0.8142 -0.0020
-0.0306 0.8243 0.0006
-0.0287 0.8204 -0.0004
-0.0208 0.8053 -0.0046
-0.0197 0.8026 -0.0053
-0.0174 0.7970 -0.0066
0.0041 0.2062 -0.0689
0.0415 -0.8639 0.0421
0.0397 -0.8670 0.0451
0.0395 -0.8692 0.0466
0.0364 -0.8750 0.0522
0.0373 -0.8745 0.0514
0.0403 -0.8700 0.0468
0.0396 -0.3366 -0.0729
-0.0078 0.7691 -0.0124
-0.0145 0.7898 -0.0083
-0.0110 0.7792 -0.0104
0.0040 0.2076 -0.0687
0.0406 -0.3235 -0.0740
0.0399 -0.3333 -0.0732
0.0541 -0.8723 0.0420
0.0533 -0.8678 0.0392
0.0537 -0.8693 0.0400
0.0540 -0.8700 0.0404
0.0540 -0.8704 0.0407
0.0543 -0.8717 0.0415
0.0541 -0.8714 0.0414
0.0544 -0.8721 0.0418
-0.0388 0.8371 0.0046
-0.0403 0.8358 0.0050
-0.0399 0.8356 0.0049
-0.0382 0.8345 0.0042
-0.0367 0.8331 0.0035
0.0040 0.2595 -0.0644
0.0403 -0.8565 0.0378
0.0410 -0.8511 0.0339
0.0401 -0.8606 0.0406
0.0392 -0.8675 0.0457
0.0415 -0.8559 0.0367
0.0403 -0.8626 0.0418
0.0407 -0.8633 0.0421
0.0439 -0.2930 -0.0763
0.0462 -0.2747 -0.0776
-0.0175 0.7980 -0.0065
0.0042 0.2673 -0.0638
0.0462 -0.2754 -0.0776
0.0491 -0.2629 -0.0784
0.0513 -0.8601 0.0347
0.0517 -0.8616 0.0355
0.0519 -0.8633 0.0366
0.0517 -0.8613 0.0353
0.0522 -0.8644 0.0373
0.0532 -0.8671 0.0387
0.0519 -0.8636 0.0369
0.0526 -0.8664 0.0384
0.0536 -0.8686 0.0396
-0.0406 0.8391 0.0054
-0.0402 0.8388 0.0053
0.0049 0.3089 -0.0607
0.0373 -0.8231 0.0188
0.0371 -0.8216 0.0181
0.0384 -0.8282 0.0212
0.0389 -0.8330 0.0238
0.0382 -0.8284 0.0215
0.0393 -0.8363 0.0256
0.0407 -0.8436 0.0293
0.0049 0.3182 -0.0599
0.0475 -0.2152 -0.0826
0.0477 -0.2154 -0.0826
0.0049 0.3175 -0.0600
0.0483 -0.2162 -0.0825
0.0457 -0.8432 0.0266
0.0480 -0.8503 0.0299
0.0444 -0.8389 0.0246
0.0475 -0.8490 0.0294
0.0491 -0.8534 0.0314
0.0491 -0.8537 0.0316
0.0509 -0.8581 0.0336
0.0513 -0.8601 0.0347
-0.0371 0.8365 0.0040
-0.0367 0.8363 0.0039
-0.0364 0.8351 0.0036
0.0054 0.3511 -0.0574
0.0341 -0.8043 0.0105
0.0344 -0.8065 0.0114
0.0349 -0.8099 0.0128
0.0351 -0.8113 0.0135
0.0363 -0.8176 0.0162
0.0358 -0.8154 0.0153
0.0368 -0.8204 0.0175
0.0361 -0.8171 0.0160
0.0054 0.3510 -0.0574
0.0055 0.3524 -0.0573
0.0588 -0.1672 -0.0858
0.0581 -0.1692 -0.0856
0.0394 -0.8226 0.0177
0.0421 -0.8314 0.0213
0.0384 -0.8182 0.0158
0.0410 -0.8278 0.0198
0.0443 -0.8386 0.0245
0.0389 -0.8205 0.0168
0.0429 -0.8338 0.0224
0.0453 -0.8417 0.0259
0.0435 -0.8359 0.0233
0.0584 -0.1803 -0.0847
0.0579 -0.1748 -0.0852
-0.0368 0.8363 0.0039
-0.0368 0.8361 0.0039
-0.0367 0.8364 0.0039
-0.0377 0.8395 0.0046
-0.0379 0.8419 0.0049
0.0323 -0.7856 0.0029
0.0327 -0.7909 0.0049
0.0059 0.3809 -0.0551
0.0321 -0.7813 0.0012
0.0326 -0.7897 0.0044
0.0330 -0.7950 0.0066
0.0340 -0.8033 0.0100
0.0336 -0.7999 0.0086
0.0061 0.3896 -0.0544
0.0471 -0.1312 -0.0892
0.0497 -0.1377 -0.0886
0.0539 -0.1515 -0.0874
-0.0285 0.8248 -0.0000
0.0058 0.3750 -0.0555
0.0495 -0.1348 -0.0888
0.0511 -0.1375 -0.0885
0.0545 -0.1529 -0.0872
0.0507 -0.1382 -0.0885
0.0538 -0.1478 -0.0877
0.0542 -0.1463 -0.0877
0.0548 -0.1482 -0.0875
0.0567 -0.1551 -0.0869
0.0371 -0.8129 0.0136
0.0059 0.3824 -0.0550
0.0526 -0.1405 -0.0882
0.0558 -0.1498 -0.0873
0.0552 -0.1467 -0.0876
0.0571 -0.1524 -0.0870
0.0584 -0.1610 -0.0863
0.0341 -0.7968 0.0072
0.0345 -0.7988 0.0079
0.0359 -0.8074 0.0114
0.0317 -0.7553 -0.0083
0.0319 -0.7709 -0.0027
0.0068 0.4279 -0.0514
0.0318 -0.7658 -0.0046
0.0318 -0.7574 -0.0075
0.0320 -0.7780 -0.0001
0.0069 0.4300 -0.0513
0.0432 -0.1160 -0.0902
0.0456 -0.1256 -0.0896
0.0451 -0.1230 -0.0898
0.0067 0.4205 -0.0520
0.0481 -0.1324 -0.0890
0.0462 -0.1241 -0.0896
0.0486 -0.1314 -0.0891
0.0460 -0.1214 -0.0897
0.0487 -0.1302 -0.0891
0.0464 -0.1257 -0.0895
0.0489 -0.1308 -0.0891
0.0333 -0.7458 -0.0108
0.0064 0.4104 -0.0528
0.0473 -0.1240 -0.0895
0.0498 -0.1319 -0.0889
0.0490 -0.1285 -0.0891
0.0489 -0.1286 -0.0891
0.0503 -0.1325 -0.0888
0.0525 -0.1388 -0.0883
0.0517 -0.1358 -0.0885
0.0505 -0.1322 -0.0888
0.0329 -0.7503 -0.0094
0.0062 0.3980 -0.0537
0.0550 -0.1452 -0.0877
0.0076 0.4589 -0.0491
0.0287 -0.7244 -0.0194
0.0272 -0.7172 -0.0221
0.0315 -0.7400 -0.0134
0.0319 -0.7537 -0.0087
0.0293 -0.7284 -0.0179
0.0316 -0.7446 -0.0118
0.0073 0.4469 -0.0500
0.0405 -0.0956 -0.0909
0.0416 -0.1053 -0.0907
0.0416 -0.1041 -0.0907
0.0424 -0.1094 -0.0905
0.0432 -0.1139 -0.0903
0.0324 -0.7301 -0.0161
0.0073 0.4481 -0.0499
0.0415 -0.1006 -0.0907
0.0435 -0.1128 -0.0903
0.0418 -0.1014 -0.0907
0.0434 -0.1102 -0.0904
0.0446 -0.1155 -0.0901
0.0429 -0.1085 -0.0904
0.0465 -0.1224 -0.0897
0.0321 -0.7241 -0.0180
0.0324 -0.7259 -0.0174
0.0328 -0.7292 -0.0162
0.0332 -0.7351 -0.0142
0.0420 -0.1016 -0.0907
0.0441 -0.1121 -0.0902
0.0429 -0.1059 -0.0905
0.0442 -0.1122 -0.0902
0.0446 -0.1137 -0.0901
0.0455 -0.1171 -0.0899
0.0437 -0.1100 -0.0903
0.0478 -0.1242 -0.0894
0.0448 -0.1150 -0.0901
0.0444 -0.1130 -0.0902
0.0091 0.5098 -0.0451
0.0088 0.4999 -0.0458
0.0187 -0.6972 -0.0314
0.0054 -0.6696 -0.0443
0.0384 -0.0649 -0.0911
0.0396 -0.0801 -0.0910
0.0395 -0.0778 -0.0911
0.0405 -0.0920 -0.0909
0.0306 -0.7190 -0.0202
0.0311 -0.7200 -0.0197
0.0324 -0.7261 -0.0173
0.0052 -0.6683 -0.0447
0.0075 -0.6736 -0.0424
0.0106 -0.6811 -0.0392
0.0124 -0.6845 -0.0375
0.0082 0.4788 -0.0475
0.0394 -0.0765 -0.0911
0.0391 -0.0731 -0.0911
0.0398 -0.0819 -0.0910
0.0404 -0.0902 -0.0909
0.0403 -0.0877 -0.0910
0.0289 -0.7131 -0.0226
0.0306 -0.7182 -0.0204
0.0304 -0.7175 -0.0207
0.0316 -0.7219 -0.0189
0.0313 -0.7205 -0.0195
0.0393 -0.0751 -0.0911
0.0396 -0.0782 -0.0910
0.0393 -0.0747 -0.0911
0.0395 -0.0772 -0.0911
0.0405 -0.0899 -0.0909
0.0397 -0.0799 -0.0910
0.0414 -0.0957 -0.0908
0.0401 -0.0849 -0.0910
0.0402 -0.0850 -0.0910
0.0416 -0.0981 -0.0908
0.0427 -0.1035 -0.0905
0.0294 -0.7144 -0.0220
0.0309 -0.7191 -0.0200
0.0100 0.5320 -0.0436
0.0101 0.5349 -0.0434
0.0018 -0.6536 -0.0492
0.0016 -0.6525 -0.0495
0.0030 -0.6588 -0.0476
0.0037 -0.6630 -0.0464
0.0040 -0.6650 -0.0459
0.0342 -0.0282 -0.0911
0.0342 -0.0277 -0.0911
0.0360 -0.0422 -0.0912
0.0178 -0.6920 -0.0332
0.0225 -0.6998 -0.0291
0.0235 -0.7012 -0.0283
0.0036 -0.6613 -0.0468
0.0044 -0.6631 -0.0461
0.0102 0.5367 -0.0432
0.0356 -0.0391 -0.0911
0.0358 -0.0406 -0.0911
0.0374 -0.0548 -0.0911
0.0376 -0.0563 -0.0911
0.0375 -0.0562 -0.0911
0.0227 -0.6996 -0.0290
0.0301 -0.7166 -0.0211
0.0233 -0.7006 -0.0285
0.0228 -0.6996 -0.0290
0.0043 -0.6610 -0.0465
0.0350 -0.0343 -0.0911
0.0358 -0.0409 -0.0911
0.0375 -0.0554 -0.0911
0.0365 -0.0463 -0.0911
0.0385 -0.0657 -0.0911
0.0356 -0.0389 -0.0911
0.0385 -0.0653 -0.0911
0.0382 -0.0625 -0.0911
0.0251 -0.7039 -0.0268
0.0281 -0.7112 -0.0235
0.0281 -0.7112 -0.0235
0.0286 -0.7122 -0.0230
0.0110 0.6047 -0.0365
0.0064 -0.6303 -0.0502
0.0100 -0.6781 -0.0402
0.0302 0.0012 -0.0906
0.0317 -0.0095 -0.0908
0.0107 -0.6772 -0.0400
0.0043 -0.6427 -0.0495
0.0110 0.6102 -0.0356
0.0299 0.0037 -0.0905
0.0315 -0.0078 -0.0908
0.0339 -0.0254 -0.0911
0.0315 -0.0083 -0.0908
0.0312 -0.0060 -0.0908
0.0320 -0.0117 -0.0909
0.0335 -0.0225 -0.0910
0.0341 -0.0273 -0.0911
0.0352 -0.0359 -0.0911
0.0360 -0.0423 -0.0912
0.0066 -0.6337 -0.0496
0.0155 -0.6859 -0.0358
0.0304 0.0001 -0.0906
0.0314 -0.0069 -0.0908
0.0316 -0.0088 -0.0908
0.0339 -0.0257 -0.0911
0.0332 -0.0201 -0.0910
0.0346 -0.0309 -0.0911
0.0348 -0.0329 -0.0911
0.0369 -0.0500 -0.0911
0.0352 -0.0359 -0.0911
0.0361 -0.0436 -0.0912
0.0196 -0.6936 -0.0320
0.0159 0.6528 -0.0356
0.0140 -0.5701 -0.0547
0.0148 0.6402 -0.0363
0.0130 -0.5888 -0.0524
0.0255 0.0332 -0.0891
0.0278 0.0182 -0.0899
0.0275 0.0204 -0.0898
0.0284 0.0141 -0.0901
0.0131 -0.5868 -0.0526
0.0067 -0.6378 -0.0490
0.0156 0.6581 -0.0347
0.0271 0.0226 -0.0897
0.0272 0.0217 -0.0897
0.0282 0.0151 -0.0900
0.0294 0.0071 -0.0904
0.0274 0.0206 -0.0898
0.0297 0.0049 -0.0904
0.0134 -0.5813 -0.0533
0.0104 -0.6250 -0.0488
0.0260 0.0303 -0.0893
0.0270 0.0237 -0.0896
0.0277 0.0187 -0.0899
0.0299 0.0037 -0.0905
0.0290 0.0098 -0.0903
0.0108 0.6901 -0.0276
0.0140 0.6709 -0.0319
0.0150 0.6638 -0.0335
0.0200 -0.5287 -0.0574
0.0137 0.6731 -0.0314
0.0149 0.6644 -0.0334
0.0199 -0.5301 -0.0573
0.0219 0.0566 -0.0876
0.0206 0.0648 -0.0871
0.0205 0.0655 -0.0870
0.0223 0.0545 -0.0878
0.0213 -0.5191 -0.0581
0.0135 0.6744 -0.0312
0.0139 0.6720 -0.0320
0.0140 0.6710 -0.0321
0.0143 0.6696 -0.0325
0.0143 0.6696 -0.0325
0.0145 0.6676 -0.0328
0.0236 0.0459 -0.0883
0.0209 0.0631 -0.0872
0.0237 0.0455 -0.0884
0.0203 0.0670 -0.0869
0.0199 0.0694 -0.0868
0.0222 0.0551 -0.0877
0.0245 0.0397 -0.0887
0.0227 0.0520 -0.0880
0.0246 0.0395 -0.0887
0.0215 -0.5161 -0.0583
0.0233 0.0477 -0.0882
0.0210 0.0622 -0.0873
0.0223 0.0546 -0.0878
0.0234 0.0472 -0.0882
0.0079 0.7062 -0.0241
0.0085 0.7030 -0.0248
0.0101 0.6940 -0.0267
0.0088 0.7012 -0.0252
0.0243 -0.4884 -0.0608
0.0115 0.6862 -0.0285
0.0248 -0.4839 -0.0612
0.0130 0.1038 -0.0823
0.0173 0.0845 -0.0854
0.0151 0.0949 -0.0840
0.0163 0.0898 -0.0847
0.0183 0.0789 -0.0860
0.0259 -0.4731 -0.0621
0.0138 0.6728 -0.0318
0.0184 0.0782 -0.0860
0.0163 0.0895 -0.0848
0.0173 0.0846 -0.0854
0.0173 0.0846 -0.0854
0.0181 0.0805 -0.0858
0.0184 0.0784 -0.0860
0.0262 -0.4708 -0.0622
0.0120 0.6835 -0.0293
0.0127 0.6790 -0.0304
0.0124 0.6808 -0.0298
0.0129 0.6779 -0.0306
0.0119 0.6841 -0.0291
0.0207 0.0645 -0.0871
0.0176 0.0831 -0.0856
0.0188 0.0762 -0.0862
-0.0040 0.7557 -0.0149
0.0048 0.7218 -0.0211
0.0070 0.7108 -0.0232
0.0029 0.7301 -0.0197
0.0073 0.7092 -0.0235
0.0277 -0.4568 -0.0634
0.0061 0.7155 -0.0223
0.0288 -0.4456 -0.0643
0.0125 0.1057 -0.0819
0.0142 0.0992 -0.0832
0.0139 0.1002 -0.0831
0.0061 0.1298 -0.0764
0.0078 0.1226 -0.0780
0.0091 0.1182 -0.0791
0.0285 -0.4481 -0.0641
0.0040 0.7254 -0.0205
0.0054 0.7188 -0.0217
0.0078 0.7068 -0.0240
0.0064 0.7137 -0.0227
0.0074 0.7089 -0.0236
0.0124 0.1060 -0.0819
0.0142 0.0992 -0.0832
0.0148 0.0964 -0.0837
0.0151 0.0952 -0.0839
0.0154 0.0936 -0.0841
0.0150 0.0956 -0.0838
0.0127 0.1048 -0.0821
0.0293 -0.4405 -0.0647
0.0077 0.7070 -0.0240
0.0090 0.7000 -0.0255
0.0100 0.6949 -0.0266
0.0151 0.0949 -0.0839
0.0165 0.0888 -0.0849
0.0022 0.1505 -0.0725
0.0025 0.1483 -0.0728
0.0310 -0.4233 -0.0661
0.0030 0.7297 -0.0197
0.0095 0.1169 -0.0794
0.0023 0.1494 -0.0726
0.0041 0.1381 -0.0746
0.0029 0.1453 -0.0733
0.0051 0.1338 -0.0756
0.0021 0.7336 -0.0190
0.0089 0.1192 -0.0789
0.0086 0.1203 -0.0787
0.0121 0.1074 -0.0816
0.0135 0.1020 -0.0827
0.0037 0.1400 -0.0743
0.0034 0.1418 -0.0739
0.0044 0.1371 -0.0749
0.0068 0.1268 -0.0771
0.0063 0.1290 -0.0766
0.0315 -0.4184 -0.0665
0.0316 -0.4173 -0.0666
0.0562 -0.8924 0.0562
0.0561 -0.8924 0.0562
0.0579 -0.8911 0.0543
0.0574 -0.8912 0.0547
0.0320 -0.8823 0.0595
0.0020 0.1657 -0.0711
0.0341 -0.3908 -0.0687
0.0317 -0.8829 0.0602
0.0304 -0.8854 0.0626
0.0022 0.1676 -0.0710
0.0343 -0.3891 -0.0688
0.0020 0.1646 -0.0711
0.0345 -0.3873 -0.0690
0.0340 -0.3918 -0.0686
0.0582 -0.8893 0.0527
0.0583 -0.8893 0.0528
0.0577 -0.8890 0.0528
0.0580 -0.8882 0.0520
0.0582 -0.8888 0.0524
0.0584 -0.8894 0.0528
0.0588 -0.8896 0.0527
-0.0242 0.8107 -0.0029
-0.0242 0.8112 -0.0029
-0.0247 0.8123 -0.0026
-0.0278 0.8185 -0.0009
0.0041 0.2053 -0.0690
0.0387 -0.3454 -0.0722
0.0369 -0.8736 0.0510
0.0335 -0.8797 0.0569
0.0306 -0.8842 0.0616
0.0346 -0.8783 0.0554
0.0314 -0.8832 0.0605
0.0312 -0.8834 0.0607
0.0346 -0.8783 0.0554
0.0300 -0.8859 0.0632
0.0382 -0.3504 -0.0719
-0.0183 0.7999 -0.0060
-0.0176 0.7984 -0.0064
-0.0146 0.7902 -0.0082
0.0042 0.2042 -0.0691
0.0393 -0.3395 -0.0727
-0.0159 0.7937 -0.0074
-0.0111 0.7794 -0.0104
0.0552 -0.8741 0.0431
0.0566 -0.8835 0.0491
0.0578 -0.8864 0.0507
0.0593 -0.8877 0.0510
-0.0343 0.8316 0.0026
-0.0332 0.8290 0.0019
0.0041 0.2607 -0.0643
0.0380 -0.8696 0.0477
0.0397 -0.8588 0.0396
0.0393 -0.8639 0.0432
0.0373 -0.8708 0.0489
0.0370 -0.8724 0.0502
0.0343 -0.8789 0.0560
-0.0256 0.8178 -0.0017
-0.0245 0.8154 -0.0023
0.0447 -0.2851 -0.0769
-0.0228 0.8114 -0.0033
-0.0207 0.8059 -0.0046
-0.0216 0.8081 -0.0041
-0.0195 0.8031 -0.0053
-0.0195 0.8030 -0.0053
0.0040 0.2544 -0.0647
0.0421 -0.3090 -0.0751
-0.0212 0.8074 -0.0043
-0.0214 0.8077 -0.0042
-0.0196 0.8033 -0.0052
0.0440 -0.2921 -0.0764
0.0519 -0.8628 0.0363
0.0525 -0.8653 0.0377
0.0535 -0.8682 0.0394
0.0540 -0.8700 0.0405
0.0537 -0.8698 0.0404
0.0547 -0.8735 0.0427
-0.0362 0.8346 0.0035
-0.0352 0.8333 0.0031
-0.0338 0.8317 0.0024
-0.0320 0.8308 0.0017
0.0045 0.2819 -0.0627
0.0385 -0.8332 0.0241
0.0384 -0.8310 0.0229
0.0403 -0.8457 0.0309
0.0381 -0.8271 0.0207
0.0383 -0.8309 0.0228
0.0403 -0.8458 0.0309
0.0398 -0.8402 0.0277
0.0390 -0.8656 0.0445
-0.0291 0.8257 0.0002
0.0049 0.3118 -0.0604
0.0495 -0.2345 -0.0808
-0.0268 0.8209 -0.0010
-0.0248 0.8161 -0.0022
-0.0256 0.8181 -0.0017
-0.0243 0.8151 -0.0025
-0.0240 0.8146 -0.0026
0.0049 0.3111 -0.0605
0.0502 -0.2269 -0.0814
0.0050 0.3264 -0.0593
0.0497 -0.2425 -0.0801
0.0480 -0.8502 0.0298
0.0496 -0.8548 0.0320
0.0504 -0.8566 0.0328
0.0491 -0.8538 0.0316
0.0506 -0.8571 0.0330
0.0506 -0.8571 0.0331
0.0510 -0.8586 0.0339
0.0511 -0.8588 0.0339
0.0514 -0.8601 0.0346
-0.0365 0.8357 0.0037
-0.0361 0.8368 0.0037
-0.0358 0.8393 0.0039
0.0348 -0.8094 0.0126
0.0354 -0.8133 0.0143
0.0351 -0.8115 0.0135
0.0370 -0.8210 0.0178
0.0373 -0.8238 0.0191
0.0360 -0.8164 0.0157
0.0372 -0.8220 0.0182
0.0357 -0.8143 0.0147
0.0379 -0.8266 0.0205
-0.0345 0.8380 0.0033
-0.0342 0.8374 0.0032
0.0055 0.3534 -0.0572
0.0556 -0.1813 -0.0848
-0.0323 0.8330 0.0021
-0.0323 0.8346 0.0022
-0.0316 0.8331 0.0018
0.0560 -0.1874 -0.0842
0.0428 -0.8336 0.0223
0.0459 -0.8436 0.0268
0.0054 0.3459 -0.0578
0.0532 -0.2016 -0.0832
0.0396 -0.8237 0.0181
0.0419 -0.8313 0.0214
0.0444 -0.8390 0.0247
0.0472 -0.8480 0.0288
0.0475 -0.8490 0.0293
0.0579 -0.1844 -0.0843
-0.0374 0.8419 0.0047
-0.0363 0.8416 0.0043
0.0321 -0.7490 -0.0102
0.0330 -0.7949 0.0065
0.0346 -0.8077 0.0119
0.0339 -0.8028 0.0098
0.0330 -0.7948 0.0064
0.0343 -0.8052 0.0108
0.0341 -0.8040 0.0103
-0.0353 0.8403 0.0038
0.0059 0.3829 -0.0549
0.0437 -0.1187 -0.0900
0.0503 -0.1432 -0.0883
0.0546 -0.1538 -0.0871
0.0321 -0.7407 -0.0130
0.0320 -0.7585 -0.0071
0.0325 -0.7442 -0.0117
0.0320 -0.7616 -0.0060
0.0320 -0.7724 -0.0022
0.0328 -0.7919 0.0052
0.0343 -0.8049 0.0105
0.0327 -0.7902 0.0045
0.0344 -0.8049 0.0105
-0.0338 0.8369 0.0030
-0.0326 0.8361 0.0025
0.0060 0.3858 -0.0547
0.0322 -0.7569 -0.0076
0.0338 -0.7995 0.0082
0.0593 -0.1593 -0.0864
0.0607 -0.1671 -0.0856
0.0601 -0.1706 -0.0853
0.0601 -0.1687 -0.0855
-0.0371 0.8434 0.0048
0.0223 -0.7059 -0.0274
0.0236 -0.7091 -0.0260
0.0258 -0.7138 -0.0237
0.0304 -0.7296 -0.0171
0.0231 -0.7066 -0.0269
0.0286 -0.7221 -0.0201
0.0316 -0.7373 -0.0142
0.0323 -0.7862 0.0030
0.0321 -0.7812 0.0011
0.0066 0.4199 -0.0520
0.0419 -0.1098 -0.0905
0.0433 -0.1163 -0.0902
0.0439 -0.1194 -0.0900
0.0476 -0.1329 -0.0891
0.0256 -0.7116 -0.0244
0.0294 -0.7225 -0.0196
0.0281 -0.7162 -0.0220
0.0305 -0.7248 -0.0185
0.0308 -0.7288 -0.0172
0.0314 -0.7298 -0.0166
0.0319 -0.7750 -0.0013
0.0319 -0.7714 -0.0026
0.0427 -0.1137 -0.0903
0.0470 -0.1299 -0.0893
0.0321 -0.7318 -0.0157
0.0326 -0.7454 -0.0112
0.0322 -0.7280 -0.0169
0.0327 -0.7423 -0.0122
0.0328 -0.7488 -0.0100
0.0321 -0.7635 -0.0053
0.0324 -0.7834 0.0019
0.0324 -0.7551 -0.0080
0.0545 -0.1436 -0.0878
0.0570 -0.1509 -0.0872
0.0585 -0.1555 -0.0868
0.0574 -0.1521 -0.0871
0.0588 -0.1557 -0.0867
0.0063 0.4032 -0.0533
0.0570 -0.1510 -0.0872
0.0593 -0.1592 -0.0864
0.0108 -0.6819 -0.0389
0.0133 -0.6870 -0.0365
0.0202 -0.7014 -0.0296
0.0079 0.4716 -0.0481
0.0117 -0.6838 -0.0380
0.0144 -0.6890 -0.0355
0.0146 -0.6894 -0.0353
0.0172 -0.6945 -0.0328
0.0168 -0.6944 -0.0330
0.0205 -0.7013 -0.0295
0.0209 -0.7015 -0.0293
0.0076 0.4583 -0.0491
0.0402 -0.0920 -0.0909
0.0409 -0.1018 -0.0908
0.0417 -0.1080 -0.0906
0.0150 -0.6901 -0.0349
0.0214 -0.7021 -0.0289
0.0176 -0.6941 -0.0327
0.0234 -0.7052 -0.0272
0.0325 -0.7474 -0.0106
0.0330 -0.7338 -0.0147
0.0076 0.4574 -0.0492
0.0408 -0.0961 -0.0909
0.0406 -0.0985 -0.0909
0.0411 -0.1022 -0.0908
0.0415 -0.1063 -0.0906
0.0328 -0.7288 -0.0163
0.0328 -0.7288 -0.0163
0.0328 -0.7287 -0.0163
0.0327 -0.7278 -0.0167
0.0330 -0.7321 -0.0152
0.0328 -0.7289 -0.0163
0.0236 -0.7042 -0.0274
0.0290 -0.7162 -0.0217
0.0229 -0.7018 -0.0284
0.0287 -0.7138 -0.0225
0.0279 -0.7110 -0.0236
0.0316 -0.7228 -0.0187
0.0071 0.4394 -0.0505
0.0450 -0.1129 -0.0901
0.0464 -0.1184 -0.0898
0.0480 -0.1238 -0.0894
0.0493 -0.1280 -0.0891
0.0505 -0.1317 -0.0888
0.0523 -0.1369 -0.0884
0.0527 -0.1382 -0.0883
0.0089 0.5054 -0.0454
0.0051 -0.6692 -0.0445
0.0067 -0.6727 -0.0430
0.0085 -0.6771 -0.0411
0.0088 0.5010 -0.0457
0.0043 -0.6671 -0.0454
0.0059 -0.6708 -0.0438
0.0062 -0.6716 -0.0435
0.0071 -0.6738 -0.0425
0.0105 -0.6814 -0.0391
0.0098 -0.6798 -0.0399
0.0074 -0.6741 -0.0423
0.0098 -0.6796 -0.0399
0.0113 -0.6829 -0.0384
0.0086 0.4934 -0.0463
0.0386 -0.0676 -0.0911
0.0395 -0.0795 -0.0911
0.0080 0.4746 -0.0478
0.0387 -0.0685 -0.0911
0.0397 -0.0796 -0.0910
0.0395 -0.0784 -0.0911
0.0398 -0.0840 -0.0910
0.0404 -0.0921 -0.0909
0.0402 -0.0878 -0.0910
0.0401 -0.0865 -0.0910
0.0409 -0.0949 -0.0909
0.0306 -0.7182 -0.0204
0.0320 -0.7234 -0.0183
0.0308 -0.7188 -0.0201
0.0301 -0.7165 -0.0211
0.0307 -0.7183 -0.0204
0.0317 -0.7222 -0.0188
0.0321 -0.7238 -0.0182
0.0320 -0.7234 -0.0183
0.0319 -0.7228 -0.0185
0.0320 -0.7234 -0.0183
0.0118 -0.6827 -0.0382
0.0178 -0.6935 -0.0328
0.0178 -0.6925 -0.0331
0.0162 -0.6895 -0.0345
0.0204 -0.6971 -0.0307
0.0403 -0.0855 -0.0910
0.0418 -0.0980 -0.0907
0.0396 -0.0781 -0.0911
0.0401 -0.0827 -0.0910
0.0407 -0.0886 -0.0909
0.0418 -0.0978 -0.0907
0.0416 -0.0959 -0.0908
0.0437 -0.1074 -0.0903
0.0108 0.5513 -0.0422
0.0018 -0.6551 -0.0489
0.0028 -0.6608 -0.0473
0.0036 -0.6654 -0.0461
0.0043 -0.6671 -0.0454
0.0105 0.5462 -0.0425
0.0031 -0.6615 -0.0471
0.0039 -0.6651 -0.0459
0.0104 0.5425 -0.0428
0.0357 -0.0400 -0.0912
0.0371 -0.0517 -0.0911
0.0105 0.5454 -0.0426
0.0364 -0.0457 -0.0911
0.0371 -0.0523 -0.0911
0.0381 -0.0618 -0.0911
0.0386 -0.0669 -0.0911
0.0384 -0.0648 -0.0911
0.0095 -0.6780 -0.0404
0.0072 -0.6719 -0.0429
0.0066 -0.6698 -0.0436
0.0092 -0.6763 -0.0410
0.0111 -0.6800 -0.0392
0.0154 -0.6875 -0.0354
0.0127 -0.6834 -0.0377
0.0376 -0.0565 -0.0911
0.0384 -0.0649 -0.0911
0.0376 -0.0569 -0.0911
0.0385 -0.0662 -0.0911
0.0388 -0.0696 -0.0911
0.0388 -0.0692 -0.0911
0.0392 -0.0732 -0.0911
0.0116 0.6028 -0.0373
0.0050 -0.6370 -0.0500
0.0118 0.5947 -0.0384
0.0047 -0.6391 -0.0499
0.0117 0.6181 -0.0353
0.0301 0.0018 -0.0905
0.0324 -0.0148 -0.0909
0.0331 -0.0198 -0.0910
0.0342 -0.0279 -0.0911
0.0306 -0.0015 -0.0906
0.0328 -0.0177 -0.0910
0.0341 -0.0272 -0.0911
0.0350 -0.0340 -0.0911
0.0048 -0.6421 -0.0493
0.0335 -0.0224 -0.0910
0.0326 -0.0163 -0.0910
0.0332 -0.0202 -0.0910
0.0341 -0.0272 -0.0911
0.0353 -0.0366 -0.0911
0.0355 -0.0386 -0.0911
0.0366 -0.0472 -0.0911
0.0142 0.6360 -0.0358
0.0135 -0.5976 -0.0508
0.0156 0.6480 -0.0358
0.0154 0.6579 -0.0345
0.0242 0.0420 -0.0886
0.0254 0.0342 -0.0890
0.0255 0.0332 -0.0891
0.0278 0.0181 -0.0899
0.0291 0.0093 -0.0903
0.0149 0.6644 -0.0335
0.0290 0.0097 -0.0903
0.0299 0.0034 -0.0905
0.0141 -0.6013 -0.0499
0.0275 0.0199 -0.0898
0.0277 0.0190 -0.0899
0.0297 0.0047 -0.0904
0.0284 0.0142 -0.0901
0.0312 -0.0059 -0.0908
0.0129 0.6776 -0.0304
0.0137 0.6725 -0.0314
0.0190 -0.5368 -0.0568
0.0139 0.6711 -0.0318
0.0129 0.6779 -0.0303
0.0124 0.6809 -0.0296
0.0132 0.6761 -0.0307
0.0136 0.6736 -0.0313
0.0130 0.6769 -0.0306
0.0129 0.6780 -0.0303
0.0142 0.6692 -0.0322
0.0143 0.6683 -0.0324
0.0130 0.6769 -0.0306
0.0140 0.6707 -0.0319
0.0193 0.0733 -0.0865
0.0208 0.0637 -0.0872
0.0205 0.0657 -0.0870
0.0220 0.0564 -0.0877
0.0224 0.0535 -0.0879
0.0234 0.0470 -0.0883
0.0141 0.6703 -0.0320
0.0143 0.6685 -0.0324
0.0135 0.6741 -0.0312
0.0138 0.6722 -0.0316
0.0141 0.6702 -0.0321
0.0140 0.6713 -0.0319
0.0138 0.6725 -0.0315
0.0193 -0.5345 -0.0569
0.0131 0.6767 -0.0306
0.0216 0.0589 -0.0875
0.0229 0.0502 -0.0881
0.0239 0.0442 -0.0884
0.0248 0.0381 -0.0888
0.0256 0.0328 -0.0891
0.0248 0.0379 -0.0888
0.0260 0.0301 -0.0893
0.0086 0.7025 -0.0249
0.0093 0.6986 -0.0257
0.0241 -0.4900 -0.0607
0.0082 0.7045 -0.0245
0.0073 0.7091 -0.0235
0.0087 0.7020 -0.0250
0.0090 0.7001 -0.0254
0.0115 0.6857 -0.0286
0.0090 0.7003 -0.0254
0.0092 0.6989 -0.0257
0.0110 0.6887 -0.0279
0.0091 0.6996 -0.0255
0.0103 0.6927 -0.0270
0.0119 0.6834 -0.0291
0.0115 0.6861 -0.0285
0.0122 0.6819 -0.0294
0.0118 0.6844 -0.0289
0.0120 0.6828 -0.0292
0.0135 0.1019 -0.0827
0.0172 0.0848 -0.0853
0.0109 0.1115 -0.0806
0.0130 0.1038 -0.0823
0.0159 0.0913 -0.0845
0.0155 0.0931 -0.0842
0.0173 0.0842 -0.0854
0.0111 0.6882 -0.0280
0.0263 -0.4694 -0.0624
0.0117 0.6849 -0.0288
0.0107 0.6906 -0.0275
0.0124 0.6809 -0.0297
0.0128 0.6786 -0.0302
0.0128 0.6782 -0.0303
0.0177 0.0823 -0.0857
0.0167 0.0876 -0.0850
0.0184 0.0784 -0.0860
0.0190 0.0748 -0.0863
0.0196 0.0714 -0.0866
0.0208 0.0635 -0.0872
0.0249 -0.4825 -0.0613
0.0282 -0.4516 -0.0638
0.0043 0.7241 -0.0207
0.0048 0.7219 -0.0211
0.0065 0.7135 -0.0227
0.0065 0.7133 -0.0228
0.0071 0.7101 -0.0234
0.0289 -0.4443 -0.0644
0.0052 0.7198 -0.0215
0.0064 0.7142 -0.0226
0.0073 0.7095 -0.0235
0.0079 0.7063 -0.0241
0.0053 0.7193 -0.0216
0.0080 0.7056 -0.0243
0.0073 0.1248 -0.0775
0.0096 0.1160 -0.0795
0.0047 0.1356 -0.0752
0.0054 0.1326 -0.0758
0.0063 0.1288 -0.0766
0.0082 0.1212 -0.0783
0.0096 0.1159 -0.0795
0.0101 0.1143 -0.0800
0.0096 0.1164 -0.0795
0.0124 0.1060 -0.0819
0.0289 -0.4447 -0.0644
0.0053 0.7195 -0.0216
0.0062 0.7151 -0.0224
0.0090 0.7002 -0.0254
0.0129 0.1041 -0.0823
0.0156 0.0930 -0.0843
0.0290 -0.4436 -0.0645
-0.0020 0.7496 -0.0162
-0.0005 0.7440 -0.0172
0.0024 0.7325 -0.0192
0.0024 0.7322 -0.0193
0.0045 0.1364 -0.0750
0.0053 0.1332 -0.0757
0.0052 0.1332 -0.0757
0.0054 0.1324 -0.0758
0.0071 0.1255 -0.0773
0.0314 -0.4187 -0.0665
-0.0001 0.7424 -0.0175
0.0008 0.7389 -0.0181
-0.0002 0.7428 -0.0174
0.0016 0.7357 -0.0187
-0.0019 0.7490 -0.0163
0.0025 0.7320 -0.0193
0.0002 0.7413 -0.0177
0.0038 0.7265 -0.0203
0.0028 0.7306 -0.0196
0.0039 0.7258 -0.0204
0.0064 0.1284 -0.0767
0.0072 0.1252 -0.0774
0.0050 0.1342 -0.0755
0.0075 0.1241 -0.0777
0.0081 0.1221 -0.0782
0.0086 0.1199 -0.0787
-0.0010 0.7457 -0.0169
0.0018 0.7350 -0.0188
0.0004 0.7406 -0.0178
0.0074 0.1249 -0.0776
0.0132 0.1032 -0.0824
0.0304 -0.4297 -0.0656
0.0024 0.7325 -0.0192
0.0038 0.7264 -0.0203
0.0102 0.1143 -0.0800
0.0135 0.1019 -0.0827
0.0126 0.1055 -0.0820
0.0135 0.1018 -0.0827
0.0326 -0.4070 -0.0674
0.0488 -0.8981 0.0639
0.0488 -0.8981 0.0639
0.0498 -0.8977 0.0632
0.0564 -0.8943 0.0575
0.0549 -0.8954 0.0591
0.0528 -0.8966 0.0609
0.0538 -0.8961 0.0600
0.0288 -0.8907 0.0673
-0.0087 0.7719 -0.0119
-0.0041 0.7569 -0.0148
0.0022 0.1516 -0.0724
0.0353 -0.3788 -0.0697
0.0286 -0.8909 0.0676
0.0294 -0.8876 0.0647
0.0290 -0.8890 0.0659
0.0291 -0.8898 0.0665
0.0288 -0.8903 0.0670
0.0286 -0.8909 0.0675
-0.0070 0.7665 -0.0130
-0.0053 0.7609 -0.0140
-0.0029 0.7529 -0.0156
-0.0025 0.7512 -0.0159
0.0026 0.1479 -0.0729
-0.0057 0.7621 -0.0138
-0.0022 0.7504 -0.0160
-0.0064 0.7645 -0.0134
-0.0055 0.7616 -0.0139
-0.0035 0.7549 -0.0152
0.0021 0.1739 -0.0704
0.0028 0.1448 -0.0734
0.0369 -0.3636 -0.0708
-0.0059 0.7628 -0.0137
0.0029 0.1449 -0.0734
0.0355 -0.3770 -0.0698
0.0502 -0.8973 0.0627
0.0545 -0.8950 0.0589
0.0541 -0.8956 0.0595
0.0537 -0.8960 0.0600
0.0562 -0.8942 0.0575
0.0548 -0.8954 0.0591
-0.0162 0.7942 -0.0073
0.0043 0.1954 -0.0699
0.0391 -0.3421 -0.0725
0.0303 -0.8851 0.0624
0.0292 -0.8885 0.0654
0.0293 -0.8881 0.0651
0.0288 -0.8903 0.0670
0.0288 -0.8903 0.0670
0.0287 -0.8903 0.0670
-0.0133 0.7862 -0.0090
0.0041 0.2060 -0.0689
0.0040 0.1920 -0.0700
0.0503 -0.8621 0.0365
0.0489 -0.8613 0.0365
0.0505 -0.8611 0.0357
-0.0129 0.7848 -0.0093
-0.0153 0.7921 -0.0077
-0.0120 0.7822 -0.0098
0.0027 0.1792 -0.0704
0.0393 -0.3394 -0.0727
-0.0153 0.7920 -0.0078
0.0021 0.1734 -0.0705
0.0493 -0.8964 0.0624
0.0505 -0.8967 0.0621
0.0545 -0.8950 0.0589
-0.0296 0.8224 0.0000
-0.0234 0.8118 -0.0031
0.0039 0.2537 -0.0648
0.0456 -0.2778 -0.0774
0.0420 -0.8384 0.0254
0.0356 -0.8754 0.0529
0.0302 -0.8851 0.0624
0.0312 -0.8833 0.0607
0.0306 -0.8844 0.0618
0.0294 -0.8883 0.0652
0.0298 -0.8869 0.0639
-0.0214 0.8074 -0.0042
-0.0236 0.8127 -0.0029
-0.0196 0.8031 -0.0052
0.0035 0.2352 -0.0661
0.0036 0.2366 -0.0660
0.0450 -0.8454 0.0282
0.0474 -0.8546 0.0329
0.0439 -0.8402 0.0256
0.0464 -0.8481 0.0292
0.0475 -0.8521 0.0312
0.0497 -0.8579 0.0339
0.0036 0.2430 -0.0655
0.0035 0.2373 -0.0659
0.0462 -0.8465 0.0283
0.0504 -0.8585 0.0340
0.0037 0.2259 -0.0670
0.0450 -0.2830 -0.0770
0.0455 -0.2791 -0.0773
-0.0341 0.8312 0.0025
-0.0335 0.8304 0.0022
-0.0321 0.8277 0.0014
-0.0304 0.8246 0.0006
-0.0288 0.8229 -0.0001
0.0049 0.3174 -0.0600
0.0353 -0.8102 0.0127
0.0371 -0.8203 0.0172
0.0392 -0.8643 0.0435
0.0048 0.3064 -0.0609
0.0049 0.3126 -0.0604
0.0488 -0.2180 -0.0822
0.0372 -0.8182 0.0160
0.0385 -0.8224 0.0177
0.0395 -0.8282 0.0205
0.0387 -0.8246 0.0188
0.0405 -0.8312 0.0218
0.0423 -0.8353 0.0234
0.0334 -0.8797 0.0570
-0.0235 0.8132 -0.0029
0.0048 0.2996 -0.0614
0.0047 0.2939 -0.0618
0.0393 -0.8242 0.0184
0.0385 -0.8205 0.0168
0.0420 -0.8334 0.0224
0.0414 -0.8302 0.0209
-0.0267 0.8207 -0.0011
-0.0245 0.8157 -0.0023
-0.0228 0.8116 -0.0033
-0.0243 0.8153 -0.0024
-0.0220 0.8096 -0.0038
0.0493 -0.2150 -0.0825
0.0504 -0.2248 -0.0815
0.0054 0.3505 -0.0574
0.0324 -0.7864 0.0031
0.0342 -0.8039 0.0101
0.0319 -0.7770 -0.0006
0.0322 -0.7814 0.0011
0.0336 -0.7988 0.0080
0.0053 0.3437 -0.0579
0.0560 -0.1687 -0.0858
0.0324 -0.7849 0.0024
0.0348 -0.8062 0.0110
0.0327 -0.7878 0.0036
0.0347 -0.8050 0.0105
0.0373 -0.8216 0.0179
0.0416 -0.8514 0.0338
-0.0271 0.8217 -0.0008
-0.0269 0.8214 -0.0009
-0.0267 0.8207 -0.0011
0.0053 0.3449 -0.0579
0.0054 0.3489 -0.0576
0.0331 -0.7922 0.0053
0.0358 -0.8100 0.0125
0.0328 -0.7872 0.0033
0.0341 -0.7974 0.0074
0.0349 -0.8043 0.0102
0.0381 -0.8188 0.0161
0.0375 -0.8162 0.0150
0.0422 -0.8389 0.0256
0.0574 -0.1878 -0.0841
0.0576 -0.1868 -0.0842
0.0059 0.3802 -0.0551
0.0317 -0.7528 -0.0091
0.0318 -0.7638 -0.0053
0.0319 -0.7451 -0.0116
0.0318 -0.7642 -0.0052
0.0319 -0.7575 -0.0075
0.0318 -0.7685 -0.0036
0.0319 -0.7745 -0.0015
0.0320 -0.7790 0.0002
0.0319 -0.7657 -0.0046
0.0319 -0.7721 -0.0024
0.0058 0.3758 -0.0555
0.0428 -0.1144 -0.0902
0.0438 -0.1189 -0.0900
0.0440 -0.1194 -0.0899
0.0508 -0.1451 -0.0881
0.0467 -0.1301 -0.0893
0.0525 -0.1529 -0.0874
0.0514 -0.1476 -0.0879
0.0320 -0.7724 -0.0023
-0.0310 0.8299 0.0013
-0.0327 0.8367 0.0026
-0.0321 0.8350 0.0022
0.0059 0.3822 -0.0550
0.0058 0.3750 -0.0555
0.0320 -0.7728 -0.0021
0.0322 -0.7624 -0.0057
0.0322 -0.7722 -0.0022
0.0321 -0.7665 -0.0043
0.0321 -0.7678 -0.0038
0.0322 -0.7730 -0.0019
0.0325 -0.7828 0.0016
0.0323 -0.7793 0.0003
0.0334 -0.7920 0.0052
0.0385 -0.8242 0.0187
0.0593 -0.1588 -0.0864
0.0596 -0.1623 -0.0861
0.0591 -0.1602 -0.0863
0.0600 -0.1647 -0.0859
0.0601 -0.1647 -0.0859
0.0596 -0.1626 -0.0861
0.0604 -0.1676 -0.0856
0.0600 -0.1698 -0.0854
0.0242 -0.7111 -0.0251
0.0284 -0.7239 -0.0196
0.0305 -0.7358 -0.0151
0.0318 -0.7469 -0.0110
0.0067 0.4225 -0.0518
0.0278 -0.7214 -0.0206
0.0304 -0.7338 -0.0157
0.0316 -0.7414 -0.0129
0.0067 0.4237 -0.0517
0.0070 0.4347 -0.0509
0.0414 -0.1074 -0.0906
0.0414 -0.1080 -0.0906
0.0421 -0.1114 -0.0904
0.0424 -0.1125 -0.0904
0.0422 -0.1116 -0.0904
0.0420 -0.1110 -0.0904
0.0420 -0.1109 -0.0904
0.0422 -0.1119 -0.0903
0.0417 -0.1097 -0.0904
-0.0351 0.8403 0.0038
-0.0347 0.8386 0.0034
0.0067 0.4218 -0.0519
0.0065 0.4143 -0.0525
0.0327 -0.7304 -0.0159
0.0331 -0.7419 -0.0121
0.0328 -0.7397 -0.0130
0.0324 -0.7523 -0.0090
0.0330 -0.7376 -0.0136
0.0328 -0.7473 -0.0105
0.0331 -0.7456 -0.0109
0.0323 -0.7573 -0.0074
0.0328 -0.7505 -0.0094
0.0552 -0.1457 -0.0876
0.0545 -0.1437 -0.0878
0.0561 -0.1483 -0.0874
0.0584 -0.1548 -0.0868
0.0575 -0.1523 -0.0870
0.0147 -0.6897 -0.0352
0.0192 -0.6992 -0.0306
0.0171 -0.6951 -0.0326
0.0216 -0.7044 -0.0281
0.0267 -0.7182 -0.0220
0.0176 -0.6961 -0.0322
0.0075 0.4539 -0.0494
0.0076 0.4566 -0.0492
0.0402 -0.0958 -0.0909
0.0402 -0.0971 -0.0909
0.0404 -0.0984 -0.0909
0.0406 -0.1003 -0.0908
0.0408 -0.1027 -0.0908
0.0411 -0.1051 -0.0907
0.0077 0.4624 -0.0488
0.0074 0.4498 -0.0497
0.0289 -0.7132 -0.0226
0.0300 -0.7162 -0.0213
0.0311 -0.7201 -0.0197
0.0300 -0.7167 -0.0211
0.0323 -0.7253 -0.0176
0.0331 -0.7345 -0.0144
0.0450 -0.1127 -0.0901
0.0470 -0.1202 -0.0896
0.0481 -0.1244 -0.0894
0.0501 -0.1306 -0.0889
0.0529 -0.1387 -0.0883
0.0522 -0.1366 -0.0884
0.0062 -0.6717 -0.0434
0.0073 -0.6743 -0.0423
0.0074 -0.6745 -0.0423
0.0086 -0.6773 -0.0410
0.0115 -0.6834 -0.0382
0.0095 -0.6791 -0.0402
0.0126 -0.6857 -0.0371
0.0118 -0.6841 -0.0379
0.0380 -0.0609 -0.0911
0.0386 -0.0675 -0.0911
0.0388 -0.0706 -0.0911
0.0394 -0.0792 -0.0911
0.0400 -0.0905 -0.0910
0.0390 -0.0733 -0.0911
0.0392 -0.0757 -0.0911
0.0399 -0.0892 -0.0910
0.0080 0.4733 -0.0479
0.0185 -0.6928 -0.0327
0.0201 -0.6958 -0.0312
0.0237 -0.7017 -0.0280
0.0265 -0.7072 -0.0253
0.0245 -0.7033 -0.0272
0.0275 -0.7097 -0.0242
0.0261 -0.7068 -0.0256
0.0404 -0.0864 -0.0909
0.0405 -0.0870 -0.0909
0.0416 -0.0957 -0.0908
0.0431 -0.1049 -0.0905
0.0414 -0.0943 -0.0908
0.0430 -0.1043 -0.0905
0.0446 -0.1111 -0.0902
0.0017 -0.6545 -0.0491
0.0039 -0.6640 -0.0462
0.0025 -0.6597 -0.0477
0.0040 -0.6662 -0.0457
0.0042 -0.6666 -0.0455
0.0048 -0.6685 -0.0448
0.0105 0.5457 -0.0426
0.0345 -0.0306 -0.0911
0.0356 -0.0393 -0.0911
0.0343 -0.0288 -0.0911
0.0359 -0.0415 -0.0911
0.0370 -0.0510 -0.0911
0.0380 -0.0608 -0.0911
0.0146 -0.6846 -0.0365
0.0123 -0.6809 -0.0384
0.0178 -0.6906 -0.0336
0.0131 -0.6827 -0.0377
0.0196 -0.6944 -0.0318
0.0231 -0.7003 -0.0287
0.0365 -0.0470 -0.0911
0.0367 -0.0480 -0.0911
0.0376 -0.0569 -0.0911
0.0375 -0.0556 -0.0911
0.0384 -0.0645 -0.0911
0.0393 -0.0741 -0.0911
0.0395 -0.0772 -0.0910
0.0028 -0.6441 -0.0502
0.0149 0.6310 -0.0379
0.0332 -0.0205 -0.0910
0.0327 -0.0166 -0.0910
0.0290 0.0099 -0.0903
0.0299 0.0036 -0.0905
0.0314 -0.0074 -0.0908
0.0316 -0.0087 -0.0908
0.0330 -0.0192 -0.0910
0.0340 -0.0265 -0.0911
0.0053 -0.6575 -0.0466
0.0315 -0.0077 -0.0908
0.0329 -0.0183 -0.0910
0.0344 -0.0291 -0.0911
0.0341 -0.0275 -0.0911
0.0355 -0.0382 -0.0911
0.0355 -0.0379 -0.0911
0.0138 -0.6073 -0.0491
0.0156 0.6587 -0.0348
0.0141 -0.6069 -0.0490
0.0154 0.6601 -0.0345
0.0242 0.0418 -0.0886
0.0244 0.0409 -0.0886
0.0260 0.0298 -0.0893
0.0273 0.0214 -0.0897
0.0261 0.0291 -0.0893
0.0273 0.0214 -0.0897
0.0287 0.0122 -0.0902
0.0159 -0.6066 -0.0480
0.0146 0.6663 -0.0329
0.0264 0.0273 -0.0894
0.0273 0.0215 -0.0897
0.0285 0.0135 -0.0901
0.0297 0.0048 -0.0904
0.0286 0.0124 -0.0902
0.0301 0.0021 -0.0905
0.0311 -0.0052 -0.0907
0.0195 -0.5332 -0.0570
0.0151 0.6638 -0.0338
0.0185 0.0777 -0.0860
0.0182 -0.5431 -0.0563
0.0196 0.0714 -0.0866
0.0183 0.0786 -0.0859
0.0192 0.0740 -0.0864
0.0204 0.0662 -0.0870
0.0212 0.0611 -0.0873
0.0227 0.0517 -0.0880
0.0134 0.6745 -0.0311
0.0133 0.6750 -0.0309
0.0136 0.6734 -0.0313
0.0141 0.6702 -0.0320
0.0177 -0.5479 -0.0559
0.0132 0.6758 -0.0308
0.0139 0.6714 -0.0318
0.0215 0.0591 -0.0875
0.0224 0.0537 -0.0879
0.0224 0.0538 -0.0878
0.0236 0.0459 -0.0883
0.0246 0.0392 -0.0887
0.0258 0.0315 -0.0892
0.0259 0.0307 -0.0892
0.0224 -0.5084 -0.0590
0.0050 0.7207 -0.0213
0.0235 -0.4959 -0.0602
0.0131 0.1033 -0.0824
0.0115 0.1092 -0.0811
0.0145 0.0978 -0.0835
0.0160 0.0907 -0.0846
0.0163 0.0895 -0.0847
0.0180 0.0803 -0.0858
0.0239 -0.4920 -0.0605
0.0128 0.6787 -0.0305
0.0142 0.6703 -0.0324
0.0143 0.6694 -0.0326
0.0122 0.6822 -0.0294
0.0125 0.6798 -0.0299
0.0247 -0.4846 -0.0611
0.0111 0.6885 -0.0280
0.0126 0.6795 -0.0300
0.0174 0.0839 -0.0855
0.0168 0.0873 -0.0850
0.0189 0.0758 -0.0862
0.0201 0.0681 -0.0868
0.0201 0.0681 -0.0869
0.0212 0.0616 -0.0873
0.0242 -0.4890 -0.0608
-0.0049 0.7590 -0.0143
0.0021 0.7338 -0.0190
0.0057 0.1312 -0.0761
0.0062 0.1292 -0.0765
0.0079 0.1224 -0.0780
0.0078 0.1225 -0.0780
0.0095 0.1165 -0.0794
0.0099 0.1151 -0.0797
0.0094 0.1170 -0.0793
0.0270 -0.4636 -0.0628
0.0046 0.7227 -0.0210
0.0069 0.7115 -0.0231
0.0092 0.6990 -0.0258
0.0050 0.7210 -0.0213
0.0054 0.7192 -0.0216
0.0055 0.7186 -0.0217
0.0080 0.7055 -0.0243
0.0095 0.6973 -0.0260
0.0123 0.1066 -0.0818
0.0117 0.1089 -0.0813
0.0280 -0.4530 -0.0637
0.0075 0.7084 -0.0237
0.0144 0.0980 -0.0834
0.0138 0.1007 -0.0829
0.0151 0.0950 -0.0839
0.0158 0.0921 -0.0844
0.0149 0.0958 -0.0838
0.0275 -0.4583 -0.0633
