0.149779 -0.825024 0.078146
0.075046 -0.239239 0.071700
0.027718 -0.550782 0.008037
0.376722 -0.616770 0.231112
-0.079562 -0.391121 -0.051341
-0.056602 -0.421257 -0.040087
0.179816 0.424725 -0.050336
0.396316 -0.599647 0.280207
0.419958 0.251009 -0.065111
0.074406 0.890709 0.050085
-0.161827 -0.158082 0.219449
0.185634 -0.152018 0.709317
0.158091 -0.349269 0.067242
0.148077 -0.270878 0.501555
-0.075002 0.340303 -0.004795
-0.111255 -0.047493 -0.290849
0.090904 0.338552 0.253596
0.008961 -0.669708 -0.047865
0.035034 -0.598904 0.024842
0.405252 0.792139 -0.151892
-0.047995 -0.695934 -0.057403
-0.283140 0.067393 -0.107704
-0.028706 0.208201 0.150625
0.107912 -0.613677 0.077659
-0.572910 -0.382800 0.045769
0.150592 0.077497 -0.040161
-0.088314 -0.116328 -0.206760
0.686815 -0.251579 -0.094407
0.374434 -0.014603 0.026432
0.425175 0.269225 -0.068428
-0.148223 -0.010485 -0.364266
-0.155628 -0.187858 0.215187
-0.303265 -0.193513 0.160649
-0.100441 0.328538 -0.106765
0.365361 -0.465237 -0.090312
0.528579 -0.556516 0.421386
0.026970 -0.602103 0.015270
0.114176 -0.427428 0.308263
-0.002839 0.855281 0.427223
0.136964 -0.894055 0.027982
-0.005033 -0.400445 0.030181
0.173082 -0.167119 0.661638
0.151035 -0.570129 0.020698
0.096293 -0.191321 0.002015
-0.033374 -0.134825 -0.153930
0.061953 -0.871914 0.094624
-0.209339 -0.191675 0.215612
-0.030004 -0.451385 -0.037888
-0.113260 -0.377525 0.112782
0.415882 0.137453 -0.023600
0.163482 -0.289230 0.046830
0.163953 -0.247145 0.035636
0.130702 -0.484144 0.270010
0.005363 0.122508 0.423834
-0.207933 -0.087217 0.296658
-0.460304 -0.074825 0.167467
0.604073 -0.310153 -0.086482
-0.046380 0.438973 0.209611
0.099457 -0.267195 0.019669
0.146311 -0.223673 0.588383
0.252803 -0.042103 0.074238
-0.506134 -0.100063 -0.188484
0.046345 0.120310 0.072244
-0.088122 -0.081796 -0.221735
-0.701581 -0.044503 -0.285710
0.076329 0.257382 0.251490
0.095841 -0.999218 0.116450
0.049628 -0.726628 -0.032459
0.083946 -0.462777 0.013350
0.246631 -0.187184 0.066674
-0.347534 -0.187035 0.258697
0.206866 -0.272792 0.087415
0.210030 0.091587 0.249616
-0.276900 0.020694 0.384031
-0.371773 -0.178372 -0.123992
0.173474 -0.657524 0.028033
0.483588 -0.389931 -0.096696
0.067156 -0.972316 0.026929
0.045123 -0.333901 0.438092
0.152524 0.039855 0.233816
-0.060621 -0.421278 -0.060711
-0.000927 -0.165489 0.039992
-0.272221 -0.603558 -0.256427
0.425359 -0.449136 -0.075699
0.117861 -0.106667 -0.015280
-0.137403 -0.061217 0.004657
-0.033683 -0.448842 0.046664
0.399822 -0.464764 -0.069885
0.356546 -0.005151 0.015767
0.321412 -0.641578 0.173133
0.139063 -0.547996 0.190027
0.507441 -0.408998 -0.103555
0.150597 -0.266622 0.519579
0.149396 -0.369370 0.055631
0.065812 -0.629640 -0.008868
-0.054784 -0.642437 -0.073899
0.077331 -0.143111 0.025764
0.162595 0.156582 -0.061741
-0.014901 -0.397435 0.024213
-0.000633 -0.168589 0.217520
-0.527057 -0.326887 0.107390
0.610299 0.160493 0.131858
0.037720 0.672541 0.314957
0.374932 -0.032949 0.068166
0.488244 0.060671 0.087785
0.014544 0.339377 0.136103
0.254663 -0.096578 0.066901
0.038428 0.031624 0.065809
0.158991 0.184156 0.311725
0.059580 -0.925479 0.036102
0.008173 -0.415135 0.013911
0.148741 -0.850225 0.043419
0.070531 -0.305668 0.084808
0.159790 0.093412 -0.060220
0.219970 0.094047 0.267576
0.290657 0.149745 0.280169
-0.153759 0.050830 -0.490261
-0.005734 -0.454554 0.083089
-0.243611 -0.202644 0.230674
0.507686 -0.551647 0.398220
0.038918 -0.073643 0.048992
0.162785 -0.661048 0.048646
-0.237174 -0.234859 -0.073398
-0.327985 -0.159890 -0.117012
0.126511 -0.766328 0.107860
-0.190817 -0.121648 0.265536
0.170037 0.114910 -0.042031
0.152564 -0.921990 0.069044
0.579382 -0.347076 -0.087957
-0.183051 -0.139788 0.235402
-0.028875 0.432026 0.273117
0.127818 -0.757010 0.016049
-0.203016 -0.634790 -0.196252
0.076149 -0.114879 0.054820
0.067839 -0.812977 0.092889
0.151384 -0.782066 0.046181
0.060932 -0.514290 0.067766
-0.629227 -0.397510 0.045272
-0.068166 -0.674118 -0.110036
0.056165 0.083851 0.065454
-0.056262 -0.343642 0.001369
-0.155532 -0.623883 -0.127275
0.394061 -0.008301 0.074953
0.202781 -0.227992 0.044516
0.153230 -0.209443 0.611526
0.140916 -0.735294 0.022828
0.337181 -0.535728 -0.057701
0.111098 -0.067741 0.193609
0.335925 -0.054886 0.063274
0.175351 -0.398296 0.062247
0.267931 0.704208 -0.131550
0.276006 -0.628008 0.145801
0.083304 -0.519939 0.059956
-0.353432 -0.539106 -0.383214
-0.327195 -0.181486 -0.117967
-0.301340 -0.570262 -0.323112
-0.187088 -0.637284 -0.157665
-0.220644 -0.266274 -0.090385
0.417856 0.240842 -0.066346
0.157822 0.219173 -0.056542
0.312812 -0.084882 0.072792
-0.412769 -0.126545 0.172951
-0.005506 0.141246 0.148795
-0.322586 -0.180434 0.157454
0.055923 -0.437976 0.012873
0.344998 -0.482744 -0.061188
0.160039 0.458800 0.036519
-0.140320 -0.656975 -0.133774
-0.184397 -0.149052 0.232268
0.070830 -0.061846 0.043025
0.397228 0.087001 -0.022360
0.033975 -0.551526 -0.030801
0.107569 -0.396742 0.391431
-0.154109 -0.022331 -0.023047
-0.425298 -0.128230 0.166535
-0.024282 0.187526 0.147725
0.013086 0.034136 0.098233
-0.118555 -0.072044 -0.278620
0.115582 -0.643583 0.004836
-0.013231 -0.488088 0.051514
-0.017058 0.047784 -0.056017
0.169499 0.093294 -0.055366
0.108246 -0.401637 0.333477
-0.043783 -0.213084 0.148112
-0.056007 0.305459 -0.006544
-0.056497 -0.125067 -0.187095
0.435048 -0.432830 -0.111602
-0.067175 0.473091 0.293938
0.128962 -0.979426 0.108379
0.125739 -0.047401 0.178857
-0.027282 -0.170332 -0.138260
-0.494473 -0.015119 -0.200872
-0.168856 -0.643591 -0.170519
0.173134 -0.338015 0.049855
0.026250 -0.734611 -0.031733
0.419473 -0.430554 -0.083338
0.101819 0.246946 0.080722
0.120233 -0.186350 0.019863
0.124474 -0.417384 0.014226
0.078121 -0.168825 0.098900
-0.029886 -0.168707 0.017947
-0.294567 0.196589 -0.627547
0.106763 -0.489139 0.226758
0.425193 0.283921 -0.086468
-0.259791 0.023383 -0.078414
0.095726 -0.620903 0.077438
0.460677 -0.402860 -0.100278
0.365985 -0.032733 0.066540
0.723801 -0.243306 -0.095734
0.038299 0.238205 0.172158
0.117681 -0.380864 0.067949
0.063515 -0.101478 0.087689
-0.269426 -0.000449 0.375573
0.373263 0.032700 0.002206
0.397199 0.217704 0.280275
0.344473 -0.506545 -0.049864
0.149995 -0.248897 0.054755
0.533604 0.280032 0.274641
-0.465637 0.199250 -0.447061
0.060364 -0.297477 0.007467
-0.193966 -0.277898 0.123043
0.112399 -0.126235 0.001002
0.128377 -0.089475 -0.024631
-0.082091 -0.102697 0.000476
-0.048123 -0.122492 -0.161629
0.156891 -0.625198 0.045561
0.047821 -0.081873 0.003276
0.223250 0.076410 0.252416
-0.020351 -0.160391 0.205891
0.144043 -0.301127 0.462135
0.142746 0.010230 0.209749
-0.337247 -0.543828 -0.355152
0.117433 -0.613201 0.003109
-0.168958 0.572324 -0.182482
0.484740 0.299226 -0.150590
-0.056151 0.502917 0.247601
0.486467 -0.555644 0.381911
0.075640 0.023310 0.159443
0.155675 0.233467 -0.042115
0.524933 -0.575541 0.400978
0.143888 -0.542882 0.013503
-0.097212 0.306560 -0.104785
0.328098 -0.618472 0.173851
-0.579589 -0.313945 0.120145
0.020705 -0.254924 0.524715
-0.370896 0.144204 -0.228093
-0.067747 -0.426563 0.083415
0.233029 -0.203030 0.054759
-0.210517 -0.010993 -0.043566
0.267846 0.695988 -0.128332
0.077512 -0.640931 0.067523
0.016695 -0.470246 0.076830
-0.479295 0.269876 -0.270411
0.139059 -0.316530 0.038992
-0.197130 -0.122792 0.272524
-0.526379 -0.322841 0.117436
-0.004539 -0.206219 0.200544
0.116686 -0.174082 -0.007000
0.364149 0.222967 -0.103088
0.175878 0.743760 0.152608
-0.040304 0.119766 -0.071852
0.255541 -0.643559 0.128723
0.241820 -0.000843 0.094467
-0.252433 -0.237075 -0.098676
0.354076 -0.629113 0.206906
0.499935 0.088255 0.096637
0.095087 0.188250 0.072904
0.082400 0.429602 0.286548
0.223318 -0.288247 0.070651
-0.175385 -0.141632 0.247470
-0.418847 -0.203192 0.288407
0.230348 -0.642963 0.136123
0.433309 -0.445044 -0.077749
0.066540 -0.339156 0.035249
0.092689 -0.588938 0.122776
0.023068 -0.496046 0.030321
-0.178111 -0.314015 -0.073891
-0.273024 0.634454 0.345264
-0.141967 0.037805 -0.473708
0.629412 -0.293498 -0.082959
0.058371 -0.781493 0.040504
0.036177 -0.254057 -0.055221
-0.014946 -0.149521 0.213528
0.046144 0.126137 0.053794
0.023516 0.292006 0.195404
-0.114301 -0.382701 0.104497
0.430349 0.366856 -0.085650
-0.016323 -0.213170 0.193233
0.044864 -0.123888 0.018049
-0.035412 -0.416223 0.053788
0.038990 -0.408369 0.001976
-0.047984 -0.379045 0.024234
0.059311 -0.050432 0.101169
-0.207988 0.733776 -0.206162
0.087617 -0.300884 -0.013143
-0.152184 0.452717 -0.147710
0.261454 -0.594844 -0.039754
0.297070 -0.094827 0.050031
0.050946 0.653540 0.313650
0.230280 -0.113178 0.065969
-0.208661 -0.009932 -0.052487
0.567405 -0.578425 0.441457
-0.086742 -0.396848 -0.039306
-0.434056 0.216692 -0.256159
0.100479 -0.421809 0.304725
0.113237 -0.459364 0.073809
-0.044067 -0.162335 -0.132081
-0.008586 -0.198373 -0.092692
0.144459 -0.855942 0.037167
0.163140 0.258050 -0.054494
-0.295705 0.055875 -0.107658
0.051193 -0.169627 0.030557
-0.198056 -0.609983 -0.210606
-0.210295 -0.279971 0.152387
0.313067 0.171995 -0.075258
0.129145 -0.287120 0.056854
0.075700 0.548894 0.319384
-0.007326 -0.184751 -0.083989
0.107469 -0.614897 0.001461
0.128239 0.416891 0.494114
0.292170 -0.522513 -0.067958
0.089706 0.693600 0.368386
-0.178058 -0.344090 0.028057
0.097384 -0.521107 0.241197
-0.042864 -0.481232 -0.011598
0.135865 0.268365 0.347688
0.293905 -0.522031 -0.039306
-0.118747 -0.356522 -0.046130
-0.009523 -0.053333 0.311221
-0.332029 -0.202785 0.156774
-0.271623 -0.247931 0.153193
-0.172916 -0.165412 0.217567
0.076161 0.175524 0.225577
-0.164247 -0.334423 -0.062349
0.034762 -0.340390 0.424144
0.209251 -0.718865 0.118015
0.091609 -0.653598 0.005276
-0.592850 -0.386389 0.046275
0.022771 0.106231 0.042143
-0.068879 0.692270 -0.206049
0.168443 0.044676 0.225972
0.045080 0.432852 0.566326
0.383043 -0.458706 -0.101292
0.279671 -0.668601 0.169494
0.323044 -0.644376 0.193669
0.343513 -0.593011 0.236897
0.087990 0.118488 0.185091
0.100233 -0.405673 0.071638
-0.247179 0.622030 0.344812
-0.341226 -0.544008 -0.372781
-0.054379 0.398687 -0.063356
-0.352087 -0.335615 0.065208
0.139082 -0.508802 0.067478
0.165533 -0.606663 0.006724
-0.210008 -0.335657 0.036368
0.072750 -0.798897 0.025826
-0.041867 0.128618 -0.076942
0.222405 -0.661961 0.106823
0.060710 -0.728930 0.041077
-0.014578 -0.232470 0.128495
0.300816 0.168105 -0.069094
-0.382902 -0.538248 -0.433914
0.076347 -0.711141 0.080221
-0.155344 -0.173755 0.224158
0.405792 -0.456214 -0.107529
0.094511 -0.690386 0.090829
0.227855 -0.621727 0.008817
-0.009546 -0.556070 -0.006533
0.476104 -0.552211 0.344439
0.301673 -0.620586 0.154801
0.065729 0.405903 0.008163
0.491796 -0.549585 0.374282
0.417015 -0.458166 -0.074030
0.168824 -0.741578 0.107739
0.142829 -0.777510 0.030676
0.059848 -0.640229 0.036500
-0.142588 -0.342943 -0.004859
0.084189 -0.200862 0.101408
-0.432178 -0.144162 -0.167860
0.100733 -0.416524 0.312277
0.072366 0.412567 0.010613
0.142667 -0.592052 0.011573
0.074906 -0.003046 0.122214
-0.160827 -0.330300 0.007368
-0.046588 0.151083 -0.084904
-0.152472 -0.050566 -0.022162
0.234966 -0.612843 -0.027555
-0.033285 -0.098839 0.278535
-0.062342 -0.476303 -0.027095
-0.478875 -0.206315 0.312143
-0.075948 -0.091462 0.020134
-0.206383 0.595854 0.337759
0.077672 -0.112118 0.034737
0.174226 0.345072 -0.047216
0.234142 -0.208221 0.085316
-0.030019 0.438215 0.265505
0.320800 -0.603099 0.218856
-0.518082 -0.204568 -0.086368
-0.078172 -0.086096 0.012391
-0.025803 -0.472511 0.051036
0.649806 -0.272128 -0.089631
0.104842 0.294060 0.074318
0.092430 0.703999 0.372151
0.160380 -0.010730 -0.043279
0.138494 -0.807249 0.095588
-0.009072 -0.697323 -0.077313
0.029084 0.701534 0.312356
0.371783 -0.592911 0.214428
0.148588 -0.496902 0.054620
-0.297625 0.042209 0.393922
0.172057 0.400082 -0.043487
0.173976 0.772393 0.164306
-0.250938 -0.287272 -0.048385
0.204061 0.609904 -0.106841
0.168081 -0.356517 0.081180
-0.034265 -0.506690 -0.008086
-0.193868 -0.208210 0.200463
-0.007766 -0.189945 0.040746
0.072720 0.794398 0.033687
-0.675336 -0.300181 0.170932
0.133386 -0.998311 0.105403
0.028825 0.336152 0.224047
0.136908 -0.349375 0.409568
0.079793 0.144944 0.216937
0.382458 -0.030640 0.053141
0.077853 -0.131394 0.073329
0.523178 -0.367439 -0.092309
0.004540 0.002587 -0.035312
0.099782 -0.292698 0.015944
0.131242 -0.708883 0.079537
0.496483 -0.391152 -0.115449
0.141820 -0.398597 0.044320
0.102233 -0.392368 0.382841
0.127148 -0.394975 0.363219
0.027022 0.245096 0.097712
0.029772 0.667481 -0.192780
-0.048347 -0.129487 -0.145725
0.077169 -0.384767 0.056360
-0.085766 -0.372602 0.111450
0.116712 -0.755940 0.011800
0.292910 0.236476 0.088154
-0.242220 -0.342720 0.036998
-0.172276 -0.194774 0.205473
0.010314 -0.398246 -0.004558
0.081007 -0.107026 0.058014
0.407936 0.008998 0.073497
0.030510 -0.034770 -0.008532
0.106276 0.291448 0.083209
-0.066928 -0.388702 0.102482
-0.102849 -0.337006 -0.013649
-0.341985 -0.552209 -0.376518
0.064037 0.704396 0.015064
-0.018311 -0.053186 0.292207
0.420580 0.250817 -0.123749
-0.039523 0.351231 0.190631
0.146313 -0.289734 0.478443
0.137754 -0.293836 0.035015
0.234644 0.103412 -0.044699
-0.312765 -0.247495 -0.081605
0.198225 0.064147 0.257335
0.150182 -0.667538 0.071798
0.080576 -0.149967 0.112746
0.042738 -0.092415 0.055150
0.002760 0.399640 0.260616
-0.041304 0.382773 0.200661
0.026189 -0.223965 0.573075
0.043731 -0.038486 0.072244
-0.220764 -0.329137 0.040786
0.179184 -0.707118 0.136730
-0.023281 -0.182999 0.218168
-0.077498 -0.645000 -0.126952
-0.084994 -0.097715 -0.231818
0.198656 0.569101 -0.096716
0.095067 -0.529787 0.189549
-0.058751 0.395014 -0.055488
-0.288484 0.642416 0.347187
-0.081694 -0.245449 0.486210
0.115028 -0.407471 0.330732
0.322834 0.430372 0.062993
0.089322 -0.822523 0.108200
-0.173795 0.601626 -0.194602
0.060957 -0.092773 0.061621
-0.047767 0.635596 0.315577
0.109546 -0.252428 0.028028
0.202333 -0.241515 0.065672
0.251397 -0.635116 0.169168
0.003954 -0.501497 0.046529
0.020282 0.028189 0.102930
-0.067074 -0.226641 0.170191
-0.318117 -0.178395 -0.118860
0.002816 0.009754 -0.011897
0.213083 0.749249 -0.155692
0.167246 0.102665 -0.058311
0.009174 0.309398 0.128830
0.154151 -0.779960 0.055806
0.099786 -0.454776 0.268838
0.447276 -0.443063 -0.109324
0.066039 -0.929145 0.103301
0.157048 -0.214818 0.576055
0.431072 0.407195 -0.096618
-0.436577 -0.106981 0.156299
0.066497 -0.714732 0.030945
-0.168703 -0.327403 0.001249
-0.049486 0.160882 -0.087431
-0.364806 -0.190332 -0.116248
-0.114215 -0.664149 -0.130416
-0.493611 -0.043582 0.165816
-0.250136 -0.269141 -0.042661
-0.175916 -0.329944 0.125966
-0.320390 0.088583 -0.130615
0.040508 -0.232272 -0.070775
0.123482 0.539664 0.349656
0.041929 0.334983 0.514698
-0.207728 -0.283302 -0.040809
0.046420 -0.485311 0.064691
0.122319 0.371015 0.077399
0.472843 0.066037 0.083050
0.081381 -0.079822 0.085828
0.360671 -0.580349 0.229862
-0.169437 -0.152005 0.224360
-0.283059 -0.235263 0.141875
-0.001916 -0.544322 0.004407
0.004269 0.063172 0.114396
0.251012 0.124844 0.267724
0.201948 -0.607972 -0.023648
-0.057997 -0.214030 0.176712
0.357873 -0.509469 -0.056402
-0.140362 -0.011203 -0.382665
0.132127 -0.314573 0.065486
-0.178205 -0.302323 -0.055669
0.076771 -0.456443 0.015915
-0.081508 -0.368555 -0.006076
-0.127072 0.383200 -0.132828
0.065418 -0.373209 0.372483
-0.171607 -0.289954 0.132204
-0.076076 -0.337117 -0.002890
-0.259573 -0.006634 0.357026
-0.497243 0.189849 -0.465526
0.138451 -0.272197 0.041881
0.067118 -0.123032 0.077350
-0.456132 -0.086370 0.158197
-0.035232 -0.350712 0.005433
0.126133 0.352771 0.079318
-0.291890 -0.233080 0.151279
0.115695 -0.172693 0.021326
-0.042094 0.181476 -0.098046
0.025178 0.005520 0.088508
-0.117116 0.363204 -0.127959
0.734641 -0.220234 -0.090502
-0.347846 0.138938 0.461259
0.010176 -0.148786 0.670398
0.075449 -0.822149 0.023456
0.525274 -0.570504 0.390887
0.161532 0.512199 0.077329
0.174315 -0.601105 0.009524
0.151777 -0.871567 0.057532
0.136242 -0.427527 0.021105
0.758719 -0.201503 -0.087830
0.001497 -0.397199 -0.003898
-0.439705 0.180782 -0.383196
0.040051 -0.750422 -0.000894
-0.076089 -0.633913 -0.088547
-0.812173 -0.457599 0.042019
0.123002 -0.541188 0.155214
0.473293 0.050779 0.091099
0.013845 -0.287268 0.465786
0.081208 -0.187109 0.021937
0.123667 -0.401023 0.069768
-0.229810 -0.254899 -0.093481
0.096591 -0.480481 0.067368
0.030470 0.044267 0.096677
0.104427 -0.164276 0.105879
0.636444 -0.279844 -0.090018
-0.148335 0.436690 -0.140349
0.127638 -0.412625 0.071466
0.059750 -0.650832 0.021555
-0.841279 -0.291412 0.216820
0.482894 -0.571130 0.340267
0.117753 -0.858119 0.016268
-0.626499 -0.307618 0.138212
0.057008 -0.602807 -0.017566
0.260589 0.669082 -0.100369
-0.045181 -0.421649 0.095113
0.248190 -0.555398 -0.014419
-0.555640 -0.206414 -0.081615
0.088803 0.171517 0.225490
-0.132122 -0.659612 -0.129267
-0.049162 -0.223214 0.144768
0.045790 -0.061672 0.036183
0.012009 -0.224031 0.148606
0.008381 -0.392663 0.035668
0.061747 -0.859317 0.092058
-0.430357 -0.074121 -0.165331
-0.255655 -0.583140 -0.235987
0.102752 -0.909724 0.117211
-0.004096 -0.722053 -0.048358
0.353887 -0.616284 0.194443
0.156093 -0.574186 0.048371
-0.347432 -0.191575 0.159877
-0.021093 -0.180864 0.189198
0.114625 -0.811104 0.015101
0.013803 0.375881 0.246552
0.307557 0.306443 0.076900
-0.290429 -0.343761 0.039345
-0.054210 0.467080 0.289858
-0.261930 -0.342542 0.043963
-0.249717 -0.243650 -0.092325
0.366095 0.212839 -0.108040
0.015944 -0.525902 -0.035901
0.271314 0.722242 -0.152833
0.138248 -0.263179 0.500964
0.104158 -0.767655 0.008796
-0.035653 0.099389 -0.066818
-0.261056 -0.255567 0.140424
-0.124317 -0.391940 -0.056943
0.057339 -0.304256 0.001748
0.083996 0.487709 0.299893
0.074312 0.130785 0.206319
0.058725 -0.234495 0.056018
0.365988 -0.031145 0.047720
0.176093 -0.716588 0.134022
-0.103234 0.511855 0.307935
0.070551 -0.218882 0.068741
0.330399 -0.637879 0.211226
-0.178526 -0.311367 -0.059571
-0.464190 -0.205414 0.313898
0.133531 -0.105138 -0.028359
0.038049 -0.208966 -0.072005
0.060445 0.024383 0.058580
0.162011 -0.229581 0.049217
0.325689 -0.097395 0.057562
0.142280 -0.567166 0.069909
-0.413689 -0.089880 -0.142307
0.177754 -0.314049 0.056537
0.153133 0.242909 -0.047881
0.521307 -0.564040 0.383578
0.129627 -0.541579 0.005318
0.036731 0.213205 0.091537
0.481867 -0.578935 0.355003
0.138688 -0.549319 0.070915
0.095250 -0.515757 0.011979
0.189515 -0.668600 0.107941
0.031968 0.318004 0.214578
0.247315 -0.044132 0.100475
0.040247 -0.433237 0.015936
0.039018 0.166952 0.077785
0.181507 0.430275 -0.059280
0.650414 0.388121 -0.228489
0.089234 0.257292 0.241368
0.641409 -0.296706 -0.099653
0.708421 0.415298 -0.257578
-0.302308 -0.188561 0.227560
0.213132 -0.227428 0.056380
-0.169604 -0.332580 0.131890
-0.077974 -0.366482 0.020636
0.239975 -0.042570 0.095540
0.234534 -0.186484 0.086542
0.108247 -0.092173 0.179724
0.081800 0.007000 0.147406
0.169453 0.138379 -0.059709
0.021260 -0.260262 0.098581
-0.882908 -0.294617 0.233219
0.030111 -0.199612 -0.072303
-0.004640 0.174276 0.143803
-0.472751 -0.011280 -0.346763
-0.144285 -0.193761 0.187703
0.261129 -0.682811 0.137111
0.019500 0.341407 0.235482
0.024044 -0.016113 -0.007476
-0.008646 0.005308 0.331752
-0.436572 -0.115884 -0.200188
0.029833 0.277534 0.498583
-0.413762 -0.543495 -0.485033
0.499629 -0.399403 -0.117170
0.092215 -0.588830 0.146878
-0.014391 -0.248610 0.123996
-0.061612 -0.146031 -0.162524
0.173729 0.357068 -0.051044
0.453488 -0.429298 -0.082128
0.160480 0.056754 -0.034389
0.120481 -0.954398 0.017356
0.029646 -0.299993 0.108884
-0.052263 0.619331 0.301353
-0.270372 0.044360 -0.081703
-0.506463 0.294237 -0.281521
-0.462049 -0.092555 0.169535
0.319555 0.164942 0.267844
-0.086163 -0.627911 -0.105001
-0.054449 0.458488 -0.096289
0.498115 -0.562404 0.398079
0.061411 0.017879 0.143399
0.431940 0.215083 -0.058271
-0.091934 -0.382701 -0.073215
0.524943 -0.574816 0.414538
0.115918 -0.559315 0.003013
0.069177 -0.710739 0.067638
0.059570 0.506124 0.360096
-0.150362 0.041357 -0.485522
0.109094 -0.916780 0.015111
0.054650 -0.225918 0.053080
0.410138 -0.470043 -0.075981
0.273521 0.129976 0.097276
0.235173 0.104951 0.271581
0.009102 -0.221174 -0.083207
0.055789 -0.698150 -0.001156
0.007188 0.771740 0.388790
-0.048835 -0.487752 -0.013816
0.156881 -0.069692 -0.032752
0.422570 -0.003050 0.071041
0.099029 -0.467333 0.311318
0.102663 -0.381588 0.072328
0.060052 -0.420109 0.005738
-0.180075 -0.295352 0.115061
0.091570 0.282950 0.247427
0.505507 -0.574622 0.389751
0.425776 -0.425733 -0.088340
-0.025344 0.227198 0.028239
-0.361461 -0.336796 0.066195
-0.094464 -0.102917 -0.231085
0.247012 0.084149 0.091748
0.389592 -0.575190 0.281615
0.081122 -0.588694 0.044267
0.088244 -0.473897 0.061668
0.145160 -0.931483 0.091592
-0.091289 -0.081100 -0.243842
-0.104668 -0.664237 -0.128707
0.152985 -0.701839 0.103126
0.656180 -0.587475 0.590569
0.253013 0.107560 0.272354
0.122768 -0.843119 0.017237
0.364865 -0.489005 -0.097709
-0.455304 -0.066454 -0.259751
0.005272 -0.215377 -0.088688
0.074395 -0.929320 0.022104
-0.137282 -0.021257 -0.364453
0.339785 -0.633452 0.190730
-0.050484 0.470034 0.235043
-0.551885 -0.308526 0.113310
0.033828 -0.333642 0.414774
0.090141 -0.196357 0.106516
0.425156 0.238299 -0.073648
0.110709 -0.513080 0.262742
0.101398 -0.380556 0.362620
0.251851 -0.173965 0.066587
-0.000114 -0.189854 -0.115127
0.186198 -0.374913 0.070815
0.135966 -0.496643 0.252450
0.141362 -0.226379 0.550468
0.151884 0.097165 -0.055657
-0.042000 -0.489829 -0.050018
0.143400 -0.317241 0.449935
-0.070299 -0.467903 -0.042783
0.345720 -0.510921 -0.089637
0.168845 0.084428 -0.055280
-0.063610 -0.114014 -0.198852
-0.226928 -0.290476 -0.055999
0.071846 -0.448988 0.016421
-0.167699 -0.638048 -0.178898
0.129195 -0.899760 0.108222
0.137749 -0.663288 0.006302
-0.025027 -0.080975 0.272742
-0.050332 -0.393263 0.092051
0.199665 0.663716 -0.120899
0.215191 -0.606525 0.022989
0.099466 -0.212581 0.077513
-0.006070 0.073540 0.367615
0.115312 -0.308668 0.035506
0.239973 -0.026542 0.087022
0.016191 -0.679216 -0.019108
0.226960 -0.124400 0.076711
0.669702 -0.281495 -0.090114
0.058580 -0.704124 -0.021019
0.167664 0.243140 -0.054336
-0.350282 -0.147031 -0.112250
0.112701 -0.121455 -0.014551
-0.022658 -0.209233 0.184754
-0.079801 0.488616 0.302396
0.089284 0.230207 0.231832
0.404501 -0.457010 -0.070722
-0.248420 -0.023770 0.355300
0.056674 -0.398642 0.022867
0.048290 0.092426 0.048444
-0.026242 -0.226075 0.163344
-0.134634 -0.347389 0.131830
-0.281774 -0.330195 0.054999
0.185474 -0.677095 0.135080
0.004901 0.377430 0.154845
0.160906 -0.235855 0.059612
-0.277540 -0.581152 -0.252684
-0.179209 -0.323713 -0.021012
0.094424 -0.102620 0.162438
-0.224679 -0.277992 0.126497
0.144880 -0.484323 0.020830
0.074131 -0.075538 0.047161
0.120389 -0.440142 0.312847
0.022112 0.244295 0.106713
0.093545 -0.526302 0.220598
0.271668 -0.150699 0.070414
0.075274 -0.193683 0.077709
-0.011416 -0.051398 0.297889
-0.145136 -0.642049 -0.116846
0.107344 -0.829506 0.110972
-0.278921 -0.210679 -0.109426
0.206844 0.053028 -0.034030
0.035573 -0.095352 0.005453
0.094634 -0.584073 0.159968
0.042790 -0.628308 0.004194
0.204995 -0.261927 0.053474
-0.025941 -0.476966 -0.012091
0.124922 -0.306741 0.035549
0.251912 -0.574663 0.002962
0.061451 -0.403268 0.031042
0.276906 -0.539297 -0.063934
0.223064 -0.160461 0.081851
-0.560262 -0.314756 0.112623
-0.020986 -0.126298 0.234684
0.219346 -0.581314 -0.026925
0.269252 0.670887 -0.099194
-0.321918 -0.208346 0.152405
-0.167106 -0.310612 -0.025207
-0.038390 -0.383530 0.025275
-0.001377 -0.161711 -0.117653
0.129321 -0.933621 0.022944
0.168337 -0.195828 0.626443
0.008915 -0.674038 -0.026229
-0.136334 0.041995 -0.546633
0.223556 -0.612966 -0.028198
-0.049373 -0.426678 -0.046642
0.085378 -0.448573 0.293374
-0.425825 0.213143 -0.258244
0.137970 -0.557889 0.008670
0.353407 -0.475115 -0.065271
-0.180269 -0.336345 0.031697
0.097760 -0.531555 0.230496
-0.041237 -0.224138 0.140857
0.249522 -0.611402 -0.004232
-0.315027 0.085131 -0.124389
-0.311595 -0.186715 0.232569
0.136974 -0.776201 0.023907
-0.039591 -0.132788 0.012486
0.157996 -0.188532 0.618332
0.027259 0.236915 0.093375
0.149241 0.025976 -0.039910
-0.127009 0.377413 -0.121133
-0.040727 -0.449656 0.083319
0.250705 0.024284 0.102304
0.341226 -0.034979 0.047019
0.120108 -0.448457 0.281644
0.082190 -0.202333 0.057161
0.118714 -0.698358 0.092963
0.503679 -0.408617 -0.094256
0.000570 0.017659 -0.016230
0.798912 0.292425 0.207850
0.185509 0.874613 0.207383
0.259814 -0.633901 0.138862
0.366344 -0.590255 0.263009
0.392262 0.036986 0.013140
0.301387 -0.102982 0.046835
-0.012485 -0.509640 -0.000266
0.141646 -0.756473 0.026300
-0.618900 -0.208900 -0.074953
0.055977 0.511701 0.367697
0.383480 -0.581462 0.278527
0.021871 -0.273871 0.502309
0.305992 -0.112602 0.071571
-0.014394 -0.481315 0.044195
-0.033420 -0.517757 -0.039021
-0.011306 -0.061974 0.290352
0.150303 -0.244415 0.533092
0.031626 -0.098305 0.016548
0.132365 -0.876854 0.104728
0.426139 0.150826 -0.037839
0.334412 -0.602343 0.234766
0.171574 0.493557 0.020153
0.019774 -0.592927 0.011084
0.450949 0.232791 0.270167
0.156267 0.164350 -0.048420
-0.039458 0.366852 0.194385
0.286751 -0.611299 0.180262
0.096963 -0.495837 0.229909
-0.186787 -0.305339 -0.064789
0.045786 -0.306840 0.464458
0.104802 -0.218141 0.044773
-0.010479 -0.220433 0.138009
0.107381 -0.544572 0.222104
0.763389 -0.204363 -0.095482
0.353801 -0.582824 0.235845
-0.157296 -0.302593 0.119628
0.081626 -0.449244 0.303677
0.173441 0.604535 0.097772
0.175889 -0.601185 0.000495
-0.189499 -0.302366 -0.076570
0.082151 -0.549888 0.016467
0.005743 0.409031 0.178212
0.115961 -0.970879 0.016452
0.023238 -0.308769 0.446757
0.088459 0.845303 0.027998
0.047392 0.664545 0.316172
0.157285 -0.415089 0.070530
-0.777108 -0.291524 0.193928
0.096673 -0.632311 0.006080
-0.087053 -0.643897 -0.133624
0.145599 -0.779873 0.096270
0.032750 0.084022 0.067026
-0.139226 -0.183441 0.193587
0.053423 -0.340271 0.426738
-0.495427 -0.113095 -0.179477
0.560264 0.282684 0.274397
0.106138 -0.090496 0.148623
0.036029 0.059015 0.070799
-0.278266 -0.594705 -0.251710
0.096270 -0.756931 0.005360
-0.137081 0.040345 -0.514435
0.113125 -0.347492 0.410080
-0.010506 -0.192182 0.214696
0.068622 -0.028074 0.107993
-0.158715 -0.346590 0.005167
0.188494 -0.144855 0.725193
0.062136 -0.317239 0.004376
-0.238848 -0.239355 0.149744
0.191230 -0.323930 0.047785
-0.200783 -0.272524 0.124718
0.204762 -0.192442 0.044013
-0.134063 -0.338144 0.096027
-0.278128 0.184268 -0.613701
0.173876 0.448028 -0.055475
0.124489 -0.122590 0.005475
0.067980 -0.302683 0.066429
0.076875 -0.562331 0.060420
0.048443 -0.401559 0.037320
0.098684 -0.163419 0.005533
-0.482793 -0.199853 0.324297
0.311398 0.167094 0.271585
0.074357 -0.725132 0.081058
0.241295 -0.223287 0.066680
-0.018468 -0.670302 -0.088153
0.048319 0.156754 0.057730
0.068474 0.760178 0.026820
0.042257 0.205590 0.058329
0.103815 -0.479211 0.240770
-0.046074 0.501044 0.248508
-0.272415 0.036338 -0.085076
-0.223639 -0.279448 0.151442
-0.106062 -0.353781 -0.010480
-0.101759 -0.376506 -0.044268
0.175685 -0.309924 0.065604
-0.007204 -0.121615 0.259488
-0.076330 -0.335121 0.006996
0.073978 0.254402 0.243318
-0.079594 -0.392600 0.105874
0.241482 -0.176176 0.049044
0.466106 -0.399355 -0.106298
0.058697 -0.009840 0.128727
0.015642 0.282701 0.113317
0.033788 -0.327316 0.443423
0.020148 -0.298603 0.450929
-0.116666 -0.081576 -0.257733
-0.321926 -0.190935 -0.105389
0.005180 -0.690273 -0.009215
0.203166 0.054185 -0.052911
0.083874 0.760703 -0.253008
0.090538 -0.162695 0.038024
-0.401471 -0.194140 0.281946
-0.240018 -0.586187 -0.242468
0.060148 0.624884 0.003224
0.380667 -0.468037 -0.102871
0.085141 -0.805831 0.017461
-0.184101 -0.322683 0.012531
0.066430 -0.258668 -0.015515
0.094601 -0.161034 0.097544
0.174552 0.693450 0.128188
-0.119405 -0.365223 0.085029
0.208334 0.071116 -0.040517
0.096919 -0.827520 0.014516
0.153736 0.000064 -0.024861
-0.022131 -0.364955 -0.006413
-0.092637 -0.642655 -0.085274
-0.052738 0.508192 0.256164
0.426357 0.294511 -0.075219
-0.097740 0.763849 -0.250941
0.140538 -0.519653 0.067345
0.010423 -0.250853 0.152937
-0.066852 -0.436727 -0.066101
0.262781 0.055982 0.101172
-0.033875 0.320085 0.169283
0.286067 0.139402 -0.070285
0.152461 -0.694170 0.064519
-0.047887 0.284139 0.001541
0.270136 0.114278 0.083038
-0.095273 -0.393482 -0.076146
0.121335 -0.344446 0.407210
0.072215 0.098177 0.174624
0.425376 0.297631 -0.087717
0.202331 -0.248482 0.079887
0.002795 0.144208 0.144036
-0.345202 -0.332925 0.039876
-0.133181 -0.351883 0.014723
-0.346684 0.120422 -0.170002
0.092182 0.164313 0.218470
0.139583 -0.654213 0.004918
0.166194 -0.168912 0.672276
0.077095 -0.873083 0.020969
-0.546936 0.355145 -0.273104
0.087216 -0.756893 0.003275
0.079622 0.508025 0.308546
0.251919 -0.631104 0.148969
0.169902 0.127290 0.292258
-0.190308 -0.318876 -0.023002
0.117322 -0.543742 0.077153
-0.021665 -0.460166 0.084136
-0.261475 -0.204203 0.221643
-0.079401 -0.654105 -0.127097
0.055428 -0.002088 0.067155
0.046038 -0.287225 -0.016721
0.404420 -0.441571 -0.078682
0.031274 -0.084671 0.022423
0.270767 -0.670896 0.170494
0.005385 -0.499378 -0.028246
-0.197568 -0.306586 -0.039278
-0.133723 -0.319506 -0.066891
0.018104 0.195973 0.465420
0.135834 -0.374894 0.410307
0.168372 0.164451 -0.061832
-0.042298 0.140765 -0.086901
-0.517212 -0.028274 0.152999
0.122374 -0.136531 0.010191
0.118581 -0.081848 0.157428
-0.363610 0.144298 -0.205460
0.097328 0.260799 0.075426
0.264161 -0.051425 0.085739
0.070680 -0.316554 -0.013763
0.133248 -0.409743 0.064755
0.214958 -0.694088 0.095862
0.037493 -0.266442 0.515234
0.445028 -0.578983 0.296853
-0.034800 0.335175 0.185792
0.704244 -0.255866 -0.084556
-0.311297 -0.216034 0.151597
-0.191041 -0.342048 0.030841
0.085361 -0.619449 0.075590
0.225017 -0.140394 0.064801
-0.115035 0.835511 -0.305376
0.039598 0.367041 0.527189
-0.117691 -0.621815 -0.117628
0.576609 -0.356068 -0.108436
-0.069188 -0.405598 0.059845
0.390993 0.205505 0.280749
0.605768 0.168576 0.132255
-0.006535 -0.512209 -0.045112
-0.015068 0.050931 0.352154
-0.391443 0.157801 -0.262226
0.018317 0.230200 0.470813
0.056003 -0.490258 0.037129
0.132222 -0.388905 0.032114
0.039116 0.220409 0.163749
0.052622 -0.530318 0.063591
-0.071805 -0.247038 0.481552
0.085594 0.674345 0.357624
-0.183969 -0.326622 0.029522
0.196339 -0.676809 0.097576
-0.048983 -0.123146 -0.172627
-0.351128 -0.342872 0.060219
-0.205444 -0.346430 0.021809
0.057962 -0.989428 0.092522
0.415216 0.798437 -0.154888
0.086183 -0.469807 0.281528
0.067802 -0.035903 0.056761
0.179077 0.005006 -0.044174
0.135056 -0.356074 0.045917
0.281082 -0.528712 -0.058584
-0.156638 -0.167853 0.209282
0.117374 0.328143 0.418882
-0.234767 -0.284021 -0.059636
-0.160578 -0.337145 -0.070106
0.173800 0.068494 0.249614
-0.021365 -0.105107 0.253431
0.066239 0.034359 0.159713
0.405885 0.125414 -0.020674
-0.169776 0.563685 -0.186966
0.112360 -0.292277 0.045870
-0.423098 -0.341366 0.071950
0.097035 -0.480946 0.011223
0.069071 -0.085951 0.032914
-0.008327 -0.196476 -0.101432
0.128280 -0.548928 0.148886
0.134970 -0.723700 0.110846
0.108884 0.913383 0.019493
0.113226 -0.344708 0.419100
-0.288975 -0.565660 -0.301642
-0.096137 -0.429960 -0.044693
0.271255 0.195301 0.088649
0.317038 -0.611244 0.222043
-0.018194 -0.518506 -0.001974
0.350603 -0.026318 0.046673
0.132278 -0.447203 0.014590
0.114858 -0.123730 0.141710
0.160804 -0.375769 0.041807
-0.013544 -0.363971 0.000237
-0.027480 -0.412413 0.063884
-0.003141 0.043772 -0.051156
0.076550 0.482086 0.299110
0.484398 0.258814 0.272320
0.114669 0.944765 0.019840
-0.329048 0.107491 -0.166807
0.093380 -0.398871 0.377984
-0.409300 -0.541731 -0.452568
0.174107 -0.607228 0.029360
0.000006 -0.239228 0.117993
0.055342 0.027840 0.045711
-0.465388 -0.336672 0.063526
0.253286 -0.006398 0.077322
0.098535 -0.622553 0.017473
-0.067136 -0.220832 0.177557
0.260466 -0.070444 0.077749
0.023391 -0.221572 -0.086303
0.272068 -0.584341 -0.010641
-0.178999 -0.305084 -0.003999
0.144171 -0.092662 -0.029738
0.134835 -0.732712 0.111402
-0.055570 0.443077 -0.087533
0.160136 0.039862 0.223856
-0.013758 -0.658356 -0.061992
0.111766 -0.354954 0.423312
0.271683 0.118326 0.263847
-0.451131 -0.083004 -0.237387
0.066894 -0.936155 0.027113
0.117120 -0.331137 0.427650
0.199503 0.547708 -0.086368
-0.068980 -0.643078 -0.073579
0.000474 0.118923 0.121173
0.063390 0.659313 0.008357
-0.391203 -0.159096 0.167259
0.221601 -0.647285 0.132667
-0.466911 -0.083982 0.172588
-0.377942 -0.122972 -0.137749
0.004866 0.594910 0.285473
-0.148182 0.446717 -0.141491
0.230727 -0.129238 0.059510
0.427000 -0.436455 -0.077724
-0.139982 -0.194647 0.207876
0.064538 -0.124811 0.018018
-0.055636 -0.344171 0.011275
-0.175783 -0.207430 0.211464
0.386028 -0.449838 -0.094354
0.202799 -0.619308 0.029658
0.032911 0.224226 0.152621
0.079138 -0.122992 0.032803
-0.399830 0.167306 -0.251940
-0.526969 -0.099867 -0.199106
0.097214 0.723001 0.378248
-0.446523 -0.206028 0.296422
-0.296553 -0.184128 0.239803
0.215931 -0.305175 0.074323
0.056246 -0.239572 -0.028085
0.250804 0.123177 -0.055862
0.132958 -0.037798 0.185104
0.093452 -0.935952 0.115955
0.063431 0.681891 0.016487
0.052195 -0.562049 -0.006110
-0.093017 0.324254 -0.112155
0.244154 -0.198133 0.076303
-0.441105 -0.204568 -0.093657
-0.140936 -0.350060 -0.047945
0.520326 -0.558835 0.415968
0.124479 -0.461476 0.294207
0.082348 -0.417918 0.059853
0.189698 0.044894 0.243046
-0.133615 -0.616278 -0.130114
-0.050203 -0.366443 0.026429
0.222539 -0.146172 0.074144
0.109070 -0.918932 0.115976
-0.015074 0.149327 0.137323
-0.698802 -0.246644 0.376737
-0.120310 -0.188058 0.183231
0.207374 -0.230596 0.076588
0.080345 0.045059 0.146257
0.052702 -0.154659 0.022536
0.169068 -0.162967 0.684292
-0.429478 -0.111766 -0.206074
0.145274 -0.230400 0.579109
0.771768 0.371003 0.245405
-0.238432 -0.293823 -0.041854
0.116257 -0.439295 0.008753
0.075330 -0.715007 0.029513
0.080414 -0.606780 0.048842
-0.119018 -0.393644 -0.049781
0.029933 -0.471101 0.041015
-0.522523 0.185549 -0.504058
0.337945 -0.046428 0.057040
-0.331870 0.111936 -0.159136
0.089544 0.344451 0.269079
-0.015236 -0.181078 -0.094470
0.288008 -0.532136 -0.071429
0.151595 -0.789400 0.076511
0.743611 -0.213408 -0.091000
0.411521 0.114815 -0.034779
-0.511509 -0.210675 0.327208
-0.368279 -0.345254 0.058150
0.752935 0.268270 0.186735
0.127956 -0.263375 0.515621
0.050677 -0.105297 0.062751
0.051663 -0.315993 0.097376
0.087078 -0.627517 -0.002483
-0.270425 -0.316550 0.036051
0.046370 -0.738859 0.032219
0.549952 -0.348194 -0.103990
0.175527 0.700771 0.134862
0.092969 -0.959715 0.015154
0.152144 -0.593933 0.030511
-0.148045 0.477962 -0.161849
0.025861 -0.541121 -0.034037
-0.270376 -0.341740 0.046896
-0.199317 0.703341 -0.205658
0.043826 -0.714165 0.024600
0.089867 -0.295696 -0.005396
0.015976 -0.181351 0.625300
0.278248 0.198380 0.093665
0.049941 -0.084680 0.034227
0.567388 0.145013 0.116713
0.112331 0.312963 0.070990
0.106907 0.281463 0.071103
-0.131050 -0.345561 0.021382
0.027122 0.037652 0.106821
-0.202333 -0.270446 0.147489
0.158438 -0.611761 0.028107
0.080108 0.101915 0.173111
0.053118 -0.327091 0.087135
0.052409 -0.285945 0.100494
-0.058556 0.424168 -0.083048
-0.005376 -0.391581 -0.006284
0.098395 -0.561771 0.195157
0.331416 -0.640192 0.198687
0.395833 -0.572371 0.287557
0.384432 -0.571778 0.270785
-0.234773 -0.620808 -0.228352
-0.008485 -0.073955 0.289259
0.219375 -0.625316 0.014418
-0.445339 0.186140 -0.387625
-0.109496 -0.631129 -0.141546
0.043741 0.190148 0.135115
0.009575 -0.018950 -0.024502
-0.062022 -0.411504 -0.048321
0.025687 0.250062 0.489624
0.151999 -0.967207 0.059029
0.170251 0.051463 -0.035092
0.149014 0.061655 -0.051407
-0.008805 -0.044876 0.314425
0.013933 -0.121738 0.720383
-0.211180 -0.596020 -0.199535
0.072558 -0.369609 0.059799
0.135572 -0.655340 0.094780
0.053524 -0.290093 0.075848
0.205804 -0.335499 0.061088
-0.157335 -0.321991 0.018134
0.234972 -0.083200 0.070405
0.107772 -0.507015 0.201966
0.005243 -0.582586 -0.003604
0.072456 -0.265473 -0.016791
0.093984 -0.215058 0.058067
0.270369 0.104001 0.096996
0.109352 -0.406397 0.072701
0.209830 -0.210282 0.068046
0.276119 0.143056 0.272584
0.060229 -0.313576 -0.003962
0.068432 -0.040044 0.046149
0.330444 0.178125 0.280434
0.134032 0.620836 0.556209
-0.266012 0.030499 -0.090981
0.478017 0.246094 0.268851
-0.010848 -0.158611 0.206784
-0.003394 0.064399 0.363403
-0.324339 -0.323299 0.060045
0.148040 -0.573547 0.065152
0.246255 -0.095684 0.063271
0.006813 -0.205254 -0.064449
0.264614 0.032740 0.098219
-0.002021 0.091817 0.118898
-0.055117 -0.688063 -0.060426
-0.708901 -0.302113 0.181566
-0.179883 0.575583 0.332730
0.094398 -0.433673 0.294212
0.149194 -0.508576 0.024596
0.199730 -0.297469 0.048781
-0.278110 -0.594561 -0.282919
-0.029036 -0.045458 0.323183
0.034452 -0.259084 0.519111
0.005128 -0.528126 0.003272
-0.336160 -0.191171 0.147840
0.095967 -0.742680 0.099796
0.358217 -0.048328 0.043374
0.043482 -0.114475 0.044299
0.424476 0.360752 -0.089913
-0.219126 -0.603836 -0.185202
0.096391 -0.572457 0.128517
-0.199213 -0.205798 0.221676
0.113787 0.340251 0.075223
-0.062365 -0.476863 -0.044608
0.063637 -0.153419 0.018170
-0.352837 -0.543827 -0.362139
-0.107713 -0.203801 0.196800
0.136706 -0.583893 0.126408
-0.005929 -0.185315 -0.120608
-0.075896 -0.398132 0.062335
0.046118 0.103257 0.090578
-0.041705 0.266788 0.163603
0.343314 -0.501309 -0.090798
0.223400 -0.591004 0.016920
-0.160334 -0.040043 -0.006839
0.422954 0.234180 -0.057850
-0.035195 0.356078 0.179592
0.149712 -0.488085 0.048670
0.054856 -0.957776 0.043123
0.074450 0.076899 0.183275
0.614803 -0.310890 -0.105934
0.272344 0.184965 0.095331
-0.181171 -0.192381 0.206704
0.123274 -0.492399 0.222466
0.213033 -0.622411 0.024300
0.066115 -0.079590 0.104379
0.272210 0.133083 -0.055959
0.073283 -0.989333 0.108208
0.116037 -0.480076 0.005078
0.035559 0.080849 0.043740
0.176009 -0.024438 -0.036478
0.132290 -0.367161 0.036043
-0.456129 0.631837 0.039120
0.414200 0.244737 -0.125548
0.094640 -0.553020 0.193671
-0.441509 -0.338325 0.059056
0.823584 -0.153973 -0.089215
0.024726 -0.201705 0.017743
-0.147626 -0.026858 -0.018903
-0.040615 -0.449928 0.052783
0.136571 -0.524074 0.224137
0.181753 0.438681 -0.062318
0.122851 0.365554 0.356345
0.237551 -0.082870 0.091816
0.144737 -0.102816 -0.003195
-0.101410 -0.383052 -0.076326
0.133107 -0.912519 0.025510
0.085788 -0.351546 0.077256
0.387146 -0.493548 -0.083517
-0.288910 -0.188241 0.241988
-0.201406 -0.015483 -0.045873
0.382830 0.239519 -0.114197
0.152601 -0.634932 -0.001523
0.009217 -0.006966 -0.030126
-0.014185 -0.401768 0.007970
-0.294192 -0.324426 0.031608
-0.491841 -0.358141 0.060925
-0.461070 -0.124201 -0.179407
0.317355 -0.598749 0.210415
-0.003155 0.143390 0.424918
-0.012363 0.061627 0.380775
0.016376 0.413783 0.280101
0.066393 0.734175 -0.232479
0.190705 -0.678771 0.142723
0.066895 -0.209738 0.067368
0.275883 -0.561287 -0.062937
0.116846 -0.474296 0.242782
0.138551 -0.365923 0.400301
0.154101 -0.022291 -0.040379
-0.032065 0.304776 0.166094
0.163098 0.133702 -0.039664
0.131160 0.240651 0.332543
0.198077 0.542393 -0.014672
0.144808 -0.261593 0.041826
0.252436 -0.151767 0.048507
0.106160 -0.851785 0.113073
0.046633 0.223968 0.073526
-0.281630 -0.197107 -0.106685
0.281880 -0.668878 0.160576
0.421632 0.148153 -0.029509
0.404048 -0.597544 0.285628
0.112191 -0.100066 0.175446
0.031887 -0.225275 -0.079319
0.456034 0.050387 0.080521
0.272937 -0.535599 -0.031102
-0.082445 -0.124333 -0.187959
-0.197808 -0.108537 0.266750
0.179565 0.845388 0.197121
-0.146480 0.468594 -0.158627
0.091852 -0.492329 0.018549
0.053729 -0.193994 0.041209
0.183898 0.091890 0.266302
0.305744 -0.606813 0.204120
0.148756 -0.769618 0.101095
0.141328 -0.284381 0.036783
0.065602 -0.094082 0.027493
-0.169713 -0.034299 -0.011508
0.218284 -0.712134 0.117723
-0.315262 -0.242910 -0.066527
0.051679 -0.053223 0.034362
-0.148409 0.003067 -0.406070
-0.287813 -0.202699 -0.111399
-0.150378 -0.193683 0.209993
-0.053620 0.297526 -0.003004
0.083869 -0.604970 0.033354
-0.250381 -0.597571 -0.261384
0.178872 -0.301049 0.066313
0.164812 -0.401654 0.039345
0.031770 -0.386145 0.023982
0.427127 0.417485 -0.096558
0.065751 -0.305364 -0.021147
-0.061837 0.440029 -0.081485
0.015411 -0.697142 -0.065020
0.096971 -0.582683 0.169424
0.078272 -0.921124 0.019519
0.005097 -0.288511 0.471118
0.415062 -0.598215 0.278944
0.020233 -0.380633 0.026203
0.328587 -0.537934 -0.049195
-0.340812 0.111526 -0.160273
0.277259 -0.109561 0.054223
0.101069 -0.466790 0.255426
0.058179 -0.488180 0.049614
0.163918 -0.752409 0.096931
-0.322812 -0.321419 0.040681
0.071369 0.590165 0.314739
0.050282 -0.963902 0.070882
0.090759 -0.136711 0.148651
-0.036853 -0.133366 -0.141696
0.004854 0.192774 0.040126
-0.058443 0.390447 -0.064755
0.060592 -0.153544 0.063076
0.169959 -0.604183 0.017212
-0.222766 0.471836 0.002357
0.046327 -0.305787 0.066246
0.160245 -0.045004 -0.012758
0.074814 -0.400514 0.375141
0.024251 -0.233149 0.554385
-0.009877 -0.261162 0.121479
0.141331 0.732535 0.447138
0.025748 -0.256883 0.516213
0.267100 -0.639868 0.133088
-0.035046 -0.463715 0.070921
0.011659 -0.726411 -0.003838
-0.093097 -0.386209 0.070996
0.082602 -0.421707 0.353715
0.273600 0.743095 -0.171768
0.072537 -0.331010 0.084234
-0.000123 -0.716803 -0.012604
0.030488 -0.707251 0.013432
0.071461 0.441415 0.008885
0.212182 -0.307402 0.055463
0.157837 -0.240936 0.042033
-0.001308 0.164789 0.146007
-0.053157 -0.494236 -0.032910
0.097542 -0.172609 0.003267
-0.013290 -0.488505 -0.046722
0.062189 -0.576586 0.005205
0.152671 -0.417073 0.034676
-0.081298 0.720912 -0.224277
-0.003400 0.118751 0.421526
0.113813 -0.385517 0.357906
0.095620 -0.808613 0.014836
-0.135865 0.399077 -0.133906
-0.213833 -0.081075 0.291580
0.071879 0.566293 0.320550
0.159004 -0.682680 0.048686
0.119425 -0.503454 0.004744
-0.355413 0.157217 0.476537
-0.120445 -0.326655 0.016119
0.144524 0.444416 0.047810
-0.364684 -0.143395 -0.116879
0.091035 -0.594824 0.019957
0.170412 0.050740 0.251159
0.062544 -0.041908 0.064041
0.155198 0.207069 -0.052476
0.130677 -0.037692 0.211852
-0.493316 0.285508 -0.275216
-0.097612 -0.398479 0.088322
0.081280 -0.432103 0.335213
0.090334 -0.870206 0.015733
0.217221 -0.599409 -0.030996
-0.471017 -0.033040 -0.186140
0.010975 -0.218824 0.156264
-0.064410 -0.243101 0.485267
-0.005247 -0.493885 0.047987
0.152901 -0.381026 0.043892
0.119061 -0.421344 0.344884
0.157722 0.022708 0.215581
0.062295 -0.260587 -0.045973
0.254074 -0.149160 0.071337
0.113621 -0.779386 0.107007
-0.064100 -0.376791 0.092102
0.168775 0.296465 -0.049942
0.025636 -0.286708 0.500475
0.299680 -0.633231 0.150212
0.159692 -0.678979 0.030692
0.307429 -0.631802 0.154780
0.129226 -0.950364 0.108202
-0.356322 -0.140911 -0.114864
0.013215 -0.452979 0.054432
-0.045482 0.344311 0.178923
0.427678 -0.561917 0.321390
0.166623 0.523217 0.083185
-0.066877 -0.125246 -0.157207
-0.013335 -0.152498 -0.133149
0.189425 -0.212619 0.069379
0.191578 -0.719818 0.131942
-0.118121 -0.059318 -0.299126
-0.315440 -0.322954 0.059720
0.095275 -0.213316 0.036878
-0.160532 -0.629520 -0.177536
-0.050353 -0.465323 -0.059322
0.183191 -0.595801 0.003386
0.265368 0.059846 0.085710
0.384613 0.032806 0.017967
0.124263 -0.380375 0.061817
-0.368794 -0.321728 0.057077
-0.011106 0.076159 -0.061864
-0.047007 0.644776 0.313676
0.094157 -0.580967 0.126753
0.201492 -0.216087 0.039502
0.097629 -0.211980 0.067101
0.310453 -0.613851 0.216757
0.138638 -0.988382 0.101346
-0.537142 -0.004296 0.159393
-0.266866 0.051261 -0.086191
0.079878 -0.657480 0.074073
0.390300 0.071103 0.000732
0.066961 0.007750 0.127821
0.158121 -0.716294 0.057904
0.047360 0.149147 0.122679
0.153111 0.281320 -0.046925
0.155576 0.289784 -0.050807
0.013469 0.065231 0.100757
0.354701 0.181807 0.282047
-0.200578 -0.283476 0.150259
0.022604 -0.266092 0.530772
0.092292 -0.468821 0.305157
0.149663 -0.199534 0.607962
0.167805 0.145217 0.288513
0.091596 -0.748488 0.002040
0.211618 -0.176736 0.051864
0.032422 -0.289061 0.467152
0.025848 -0.050865 -0.011686
-0.037486 -0.168093 -0.130430
-0.043025 0.304309 0.175939
0.420566 0.181933 -0.056626
0.119638 0.317825 0.081110
0.378103 -0.596658 0.271418
-0.015060 -0.132660 0.230079
-0.129271 0.391972 -0.135683
0.122618 -0.690115 0.091967
0.113550 -0.908083 0.016002
0.178083 0.415685 -0.048055
0.135216 -0.343101 0.037641
0.036193 -0.477739 0.067420
0.099258 -0.204215 0.038381
-0.122023 -0.367064 -0.043705
0.465378 -0.577962 0.353656
-0.057646 -0.148590 -0.147135
-0.022665 0.005112 0.329510
-0.048744 0.611844 0.304651
-0.292387 -0.257020 -0.058242
0.026352 0.313402 0.203964
0.225206 0.076253 -0.037837
-0.128699 -0.060479 -0.280865
0.159432 -0.279256 0.036149
-0.373399 0.139002 -0.205398
-0.428201 -0.195086 0.295868
-0.029494 -0.053672 0.295185
0.233113 -0.612756 0.012207
0.127021 -0.609166 0.091947
0.119528 -0.574922 0.187991
-0.237042 -0.587075 -0.233449
0.021415 0.075097 0.113220
-0.051943 -0.151715 0.019901
0.106076 -0.222309 0.011509
-0.014859 -0.189793 -0.098108
0.151374 -0.439857 0.033621
0.051423 -0.638630 0.005370
-0.010187 -0.163339 0.042188
-0.068809 -0.135476 -0.182015
-0.536145 -0.009588 0.151829
0.168863 0.233950 -0.054893
-0.012926 0.212263 0.153944
-0.329752 -0.557388 -0.324909
-0.000947 -0.704922 -0.070493
-0.280229 -0.227116 0.138216
-0.573843 0.045784 0.159269
-0.014555 -0.150844 0.026150
0.201557 -0.630818 -0.013284
0.173529 0.357177 -0.040288
0.150060 -0.873742 0.048926
-0.410195 -0.099357 -0.139534
0.023358 -0.246379 -0.046556
0.330638 -0.610176 0.231582
0.083737 0.367145 0.261519
0.557360 -0.366236 -0.089826
-0.006831 -0.145510 0.221402
0.202248 -0.186041 0.052152
0.029656 0.112010 0.040422
-0.029277 -0.532600 -0.020784
-0.195728 0.094433 -0.536511
0.059481 0.033519 0.054558
0.123295 -0.119067 -0.024040
-0.077016 -0.450312 -0.029084
0.123777 -0.727164 0.011608
0.468780 -0.435918 -0.096310
0.095725 0.364327 0.264382
0.035164 0.675734 -0.198331
0.133225 -0.989686 0.025516
0.145771 -0.746147 0.031180
0.030581 -0.033280 0.000993
-0.217272 0.000502 -0.041080
-0.205180 -0.283583 -0.065055
0.035246 0.244285 0.160941
0.125623 -0.395543 0.018472
0.035848 -0.298124 0.074163
0.086599 -0.337647 0.076785
0.052225 -0.253635 -0.053747
-0.102873 -0.188228 0.185651
0.047674 -0.348715 0.396564
0.095447 -0.092083 0.162548
0.164234 0.100332 -0.038980
0.049642 -0.324460 0.442691
0.147502 -0.091899 -0.004959
-0.159861 0.517127 -0.167811
0.148202 -0.725557 0.065354
-0.151003 -0.210861 0.514646
0.202320 0.063162 -0.049154
0.088340 -0.708544 0.026213
-0.026236 0.202299 0.158191
-0.009513 -0.086583 0.289330
0.191573 -0.665719 0.117567
0.403061 -0.603453 0.275237
0.112029 -0.220275 0.028753
0.083350 0.181051 0.210627
-0.190661 -0.294531 0.115233
0.009295 0.114940 0.123173
