0.05122 -0.487696 0.0709217
0.0906121 -0.478602 0.262564
0.0816841 -0.478502 0.267697
0.0704755 -0.478745 0.265883
0.0565036 -0.479391 0.255903
-0.0227692 -0.48957 0.0528178
-0.156735 -0.5042 -0.232556
-0.167909 -0.504183 -0.22854
-0.180353 -0.504343 -0.228098
-0.187422 -0.494912 -0.0137798
-0.194911 -0.494499 -0.00205073
-0.20541 -0.49448 0.00179121
-0.216384 -0.494521 0.00442109
-0.22784 -0.494623 0.0058515
-0.240522 -0.494877 0.00426102
-0.254633 -0.495305 -0.00076372
-0.272466 -0.496184 -0.0147388
-0.303322 -0.465583 0.68325
-0.432108 -0.472767 0.563579
-0.44011 -0.472655 0.568689
-0.450307 -0.472749 0.569904
0.308933 -0.487018 0.224515
0.299458 -0.487015 0.227643
0.288887 -0.487237 0.226427
0.276396 -0.487839 0.217814
0.170684 -0.506983 -0.15025
0.154575 -0.503896 -0.0801216
0.144429 -0.503821 -0.0752579
0.133137 -0.503963 -0.0745722
0.121527 -0.504161 -0.0749504
0.049452 -0.4986 0.0653535
0.0867395 -0.489212 0.250584
0.0780924 -0.489055 0.256699
0.0672835 -0.489245 0.256205
0.0536887 -0.489872 0.24745
-0.0227557 -0.500313 0.0528191
-0.142278 -0.515477 -0.227127
-0.152615 -0.515337 -0.220814
-0.171865 -0.505344 -0.0044957
-0.181387 -0.505189 0.00185791
-0.192083 -0.505199 0.00511105
-0.203336 -0.505286 0.00693935
-0.215235 -0.50546 0.00715699
-0.228262 -0.505783 0.00459418
-0.242637 -0.506282 -0.00121571
-0.307506 -0.475112 0.675086
-0.332619 -0.47681 0.647552
-0.396977 -0.482531 0.548199
-0.404481 -0.482357 0.554303
-0.41342 -0.48233 0.557757
-0.422773 -0.482346 0.560458
0.306044 -0.497519 0.213043
0.297771 -0.497244 0.221151
0.287777 -0.497351 0.222296
0.276345 -0.497763 0.217869
0.260504 -0.4991 0.196634
0.161824 -0.517747 -0.139382
0.153042 -0.515166 -0.0855914
0.143989 -0.514863 -0.07667
0.133625 -0.514829 -0.0726244
0.123333 -0.514781 -0.0683367
0.0472735 -0.509608 0.0584861
0.0828681 -0.499897 0.238608
0.074475 -0.49968 0.245623
0.0640484 -0.499813 0.246397
0.0497036 -0.500601 0.235492
-0.022552 -0.511016 0.0533836
-0.137039 -0.526345 -0.212005
-0.149929 -0.516309 -0.00970961
-0.157699 -0.515877 0.00135053
-0.168187 -0.515861 0.00507581
-0.179217 -0.515925 0.00738022
-0.190733 -0.516061 0.00844306
-0.202997 -0.516304 0.0076352
-0.215845 -0.516627 0.00542288
-0.231908 -0.517409 -0.0047797
-0.325504 -0.48623 0.641086
-0.333626 -0.486149 0.645332
-0.340676 -0.48595 0.651534
-0.346997 -0.485675 0.659018
-0.349629 -0.485004 0.673124
-0.353982 -0.484526 0.683966
0.295737 -0.507592 0.213262
0.286197 -0.507595 0.216305
0.275402 -0.507883 0.214439
0.263044 -0.508516 0.206675
0.154004 -0.528238 -0.12483
0.143056 -0.526013 -0.0798868
0.13406 -0.525686 -0.0708703
0.124492 -0.525485 -0.064034
0.114294 -0.52542 -0.0595037
0.0451798 -0.52064 0.0518871
0.079249 -0.510612 0.227412
0.0700969 -0.510513 0.232218
0.0594975 -0.510677 0.232606
-0.00914971 -0.521193 0.0592615
-0.0224033 -0.521718 0.0537852
-0.1221 -0.537356 -0.204771
-0.135049 -0.526667 -0.00168088
-0.14439 -0.526466 0.00509546
-0.155263 -0.526515 0.00771363
-0.166292 -0.526588 0.00993769
-0.178101 -0.526783 0.0101436
-0.190526 -0.527071 0.00881483
-0.203772 -0.527482 0.00546925
-0.330976 -0.497167 0.610854
-0.33977 -0.497148 0.614057
-0.391484 -0.502161 0.537588
0.292862 -0.518193 0.201994
0.284358 -0.517935 0.209288
0.274461 -0.51802 0.211016
0.262717 -0.518541 0.205656
0.248457 -0.51964 0.190944
0.13313 -0.536829 -0.0740474
0.124907 -0.536319 -0.0623866
0.115273 -0.536128 -0.0559041
0.0806108 -0.522327 0.198202
0.0757253 -0.521377 0.216512
0.0661192 -0.521354 0.220038
0.0550687 -0.521606 0.219184
-0.00896143 -0.531847 0.0597974
-0.0224151 -0.532441 0.0537117
-0.112686 -0.537462 -0.00530778
-0.121174 -0.537099 0.00383942
-0.131221 -0.537012 0.00862479
-0.142405 -0.537123 0.0103188
-0.153655 -0.537242 0.0118676
-0.165712 -0.537496 0.0113212
-0.178562 -0.537878 0.00877809
-0.192997 -0.538516 0.00224174
-0.334521 -0.51039 0.543146
-0.336093 -0.509425 0.560632
-0.340676 -0.508854 0.572174
0.282337 -0.528363 0.201548
0.272747 -0.528368 0.204571
0.26198 -0.528669 0.203056
0.249844 -0.529301 0.196451
0.143296 -0.547854 -0.0786089
0.12386 -0.547475 -0.0659565
0.115551 -0.546966 -0.0547727
0.106044 -0.546742 -0.0479476
0.0777379 -0.533084 0.189227
0.0714617 -0.532362 0.203322
0.0621527 -0.532269 0.207893
0.0497148 -0.532806 0.202962
-0.00866947 -0.54247 0.0606437
-0.0221997 -0.543112 0.0543108
-0.0988403 -0.547835 0.000384432
-0.107271 -0.547444 0.00964503
-0.118064 -0.547496 0.0122887
-0.12947 -0.547659 0.0132752
-0.141293 -0.547895 0.0131868
-0.153577 -0.548208 0.0119375
-0.166658 -0.548659 0.00867305
-0.183429 -0.549752 -0.0041202
-0.314478 -0.526162 0.432203
-0.31859 -0.525409 0.446097
-0.322279 -0.524608 0.460667
-0.327331 -0.524007 0.472339
-0.329992 -0.523085 0.488598
-0.33264 -0.522173 0.504674
-0.336048 -0.521377 0.519069
-0.341305 -0.520842 0.529715
0.279422 -0.539077 0.190268
0.270934 -0.53878 0.197741
0.26067 -0.538959 0.198242
0.24918 -0.539452 0.194149
0.236265 -0.540299 0.184892
0.114438 -0.558127 -0.0585419
0.106118 -0.557605 -0.0475569
0.0967667 -0.557339 -0.0402981
0.0744144 -0.543993 0.178841
0.0673035 -0.543407 0.190458
0.0580428 -0.543291 0.195309
0.0448932 -0.543998 0.188351
-0.00850506 -0.553106 0.0611082
-0.0220895 -0.553794 0.0545986
-0.0844034 -0.558007 0.00796768
-0.0935295 -0.557738 0.0152118
-0.104662 -0.557865 0.0167989
-0.116052 -0.558041 0.0177151
-0.128563 -0.558429 0.0156261
-0.141577 -0.558905 0.01229
-0.154749 -0.559403 0.00866834
-0.299931 -0.536673 0.416682
-0.304813 -0.535982 0.42924
-0.310711 -0.535451 0.439571
-0.316378 -0.534895 0.450252
-0.322238 -0.534374 0.460424
-0.328732 -0.533953 0.469221
-0.334065 -0.533369 0.480218
-0.340609 -0.532967 0.488718
0.26834 -0.54945 0.187855
0.258865 -0.549411 0.191522
0.248267 -0.549679 0.190902
0.235953 -0.550404 0.183931
0.222663 -0.551372 0.173607
0.104723 -0.568827 -0.0522726
0.0967695 -0.568198 -0.0401664
0.0707658 -0.55504 0.167438
0.063358 -0.554485 0.178253
0.0538229 -0.554416 0.182388
0.040166 -0.555262 0.174026
-0.00850848 -0.56377 0.0610702
-0.021796 -0.564428 0.0554295
-0.0707641 -0.568248 0.0135177
-0.0802998 -0.568055 0.0195348
-0.0912852 -0.568166 0.0214254
-0.1026 -0.568342 0.0224306
-0.115256 -0.568788 0.0197944
-0.12872 -0.569389 0.0150781
-0.14309 -0.57016 0.00808143
-0.27183 -0.549727 0.359163
-0.276552 -0.548927 0.372813
-0.281615 -0.548193 0.385563
-0.286975 -0.547518 0.397524
-0.292604 -0.546895 0.408778
-0.298298 -0.546292 0.419763
-0.304672 -0.545804 0.429219
-0.310974 -0.545311 0.438719
-0.317913 -0.544925 0.446826
-0.326338 -0.544773 0.451867
0.256196 -0.560151 0.181471
0.246102 -0.56028 0.182888
0.235272 -0.560613 0.181586
0.222766 -0.561406 0.174183
0.208211 -0.562744 0.159558
0.0954578 -0.579391 -0.0445543
0.0875869 -0.578723 -0.0323361
0.0676552 -0.56603 0.157719
0.0594201 -0.565637 0.166071
0.0491552 -0.565728 0.168096
0.035401 -0.566625 0.159586
-0.00867418 -0.574464 0.0605464
-0.0210748 -0.574951 0.057527
-0.0494292 -0.57902 0.00789675
-0.0570761 -0.578395 0.0194219
-0.0669811 -0.57828 0.0242987
-0.0780153 -0.578414 0.0259389
-0.0895829 -0.578662 0.0261171
-0.102365 -0.579166 0.0229843
-0.115944 -0.57983 0.0177909
-0.1317 -0.580941 0.00683882
-0.237264 -0.56217 0.312615
-0.241993 -0.561283 0.32697
-0.248092 -0.560651 0.338092
-0.254288 -0.560046 0.348863
-0.260851 -0.559513 0.358703
-0.267088 -0.558931 0.369136
-0.273314 -0.558357 0.37947
-0.280021 -0.557872 0.388658
-0.286404 -0.55734 0.39843
-0.293409 -0.556919 0.40679
-0.300239 -0.556475 0.415429
-0.307589 -0.556124 0.422904
-0.316832 -0.556086 0.426448
0.252077 -0.57139 0.165828
0.243616 -0.571023 0.173655
0.233377 -0.571189 0.174682
0.221869 -0.571721 0.171058
0.209252 -0.57256 0.163548
0.19313 -0.574375 0.143647
0.0853615 -0.590152 -0.0397864
0.0781095 -0.589299 -0.0256258
0.0633266 -0.577382 0.144188
0.0551457 -0.576949 0.152847
0.0449857 -0.577008 0.15533
0.0308129 -0.578037 0.145681
-0.0087076 -0.585122 0.0604186
-0.0205719 -0.585505 0.0589778
-0.0363059 -0.58679 0.0463004
-0.0535425 -0.5884 0.0296059
-0.0647996 -0.5886 0.0304863
-0.0763479 -0.588864 0.0305919
-0.0891812 -0.589413 0.0271551
-0.102991 -0.590171 0.0211439
-0.122605 -0.592206 -0.000652699
-0.212706 -0.573173 0.292154
-0.219478 -0.572607 0.302202
-0.225814 -0.571967 0.31312
-0.232 -0.571308 0.324244
-0.23842 -0.570704 0.334704
-0.245503 -0.57023 0.34357
-0.252613 -0.569768 0.352274
-0.259995 -0.569362 0.360292
-0.267294 -0.568947 0.368406
-0.274348 -0.568495 0.376963
-0.281925 -0.568142 0.384316
-0.289467 -0.567787 0.391672
-0.297373 -0.567502 0.398195
0.240859 -0.581906 0.163389
0.231145 -0.581909 0.166511
0.22073 -0.582124 0.167031
0.20862 -0.582843 0.161421
0.195593 -0.583817 0.152718
0.179002 -0.585813 0.131599
0.0763871 -0.600589 -0.0313118
0.0501167 -0.588538 0.137289
0.0403887 -0.588477 0.141254
0.0263401 -0.589508 0.132125
-0.00839277 -0.595688 0.0613336
-0.0204597 -0.596138 0.0592717
-0.0336358 -0.596852 0.0540749
-0.0516126 -0.598717 0.0351412
-0.0634522 -0.599072 0.0342814
-0.0762834 -0.599656 0.0306944
-0.0901777 -0.60048 0.024265
-0.197639 -0.584226 0.275052
-0.203693 -0.583475 0.286993
-0.21023 -0.582832 0.297657
-0.217384 -0.582321 0.30677
-0.224798 -0.581869 0.315186
-0.231496 -0.581284 0.325125
-0.238625 -0.580792 0.333985
-0.24595 -0.580344 0.342309
-0.253776 -0.579999 0.349442
-0.261789 -0.579693 0.356099
-0.270022 -0.579434 0.362221
-0.278367 -0.579199 0.368053
0.228415 -0.592836 0.156471
0.218441 -0.592911 0.158744
0.207675 -0.593232 0.158146
0.194995 -0.594137 0.150724
0.182049 -0.595101 0.142622
0.166607 -0.596797 0.126006
0.0449367 -0.600266 0.121263
0.0348661 -0.600281 0.124346
0.0205806 -0.601403 0.114675
0.000807136 -0.60393 0.088852
-0.0196108 -0.606573 0.0617478
-0.0344228 -0.607736 0.0517198
-0.0505925 -0.60922 0.0380388
-0.063658 -0.609899 0.0336208
-0.0778569 -0.610846 0.0261471
-0.178368 -0.596589 0.240742
-0.184066 -0.595695 0.253999
-0.190349 -0.59494 0.265677
-0.1963 -0.594127 0.277987
-0.202787 -0.593439 0.28888
-0.209844 -0.592879 0.298314
-0.217502 -0.592452 0.306254
-0.225721 -0.592146 0.312832
-0.233525 -0.59176 0.320286
-0.241238 -0.591362 0.327872
-0.25006 -0.591191 0.332917
-0.260753 -0.591393 0.333816
0.215847 -0.603847 0.14933
0.20549 -0.604039 0.150333
0.194091 -0.604561 0.14763
0.181888 -0.605326 0.142203
0.169289 -0.606197 0.135598
0.154382 -0.607764 0.121202
0.0380817 -0.612563 0.100053
0.0286313 -0.612389 0.105258
0.0156281 -0.613189 0.0996665
-0.00221341 -0.61528 0.0797805
-0.0191208 -0.617081 0.0631607
-0.0351593 -0.618616 0.0495127
-0.050832 -0.620027 0.0372848
-0.0654221 -0.621129 0.0284899
-0.158626 -0.609119 0.206256
-0.164185 -0.608118 0.220362
-0.170249 -0.607247 0.23303
-0.17658 -0.60645 0.244875
-0.182934 -0.60567 0.256508
-0.189415 -0.604932 0.267684
-0.197052 -0.604458 0.275986
-0.204665 -0.603986 0.284253
-0.212155 -0.603495 0.292713
-0.220894 -0.603279 0.298209
-0.230284 -0.603204 0.302182
0.212312 -0.615159 0.136427
0.203231 -0.614916 0.142253
0.192639 -0.615182 0.142553
0.18117 -0.61573 0.139797
0.168955 -0.616507 0.134561
0.156245 -0.617427 0.127811
0.142165 -0.618761 0.116592
0.0331799 -0.624432 0.084888
0.0237223 -0.624241 0.0902276
0.0118125 -0.624748 0.0880995
-0.00398488 -0.626335 0.0744488
-0.0193783 -0.627779 0.0623597
-0.0353661 -0.629359 0.0488575
-0.0508325 -0.630766 0.0372235
-0.131491 -0.622585 0.160255
-0.136422 -0.621331 0.176705
-0.142292 -0.620325 0.190512
-0.149159 -0.619576 0.20161
-0.156154 -0.61887 0.212239
-0.162934 -0.618124 0.223262
-0.169759 -0.617402 0.23403
-0.176648 -0.616706 0.244502
-0.184113 -0.616155 0.253457
-0.191705 -0.615641 0.262005
-0.199415 -0.615162 0.27018
-0.208699 -0.615045 0.274578
-0.219598 -0.615291 0.27521
0.199865 -0.626227 0.130123
0.190352 -0.626118 0.134461
0.179668 -0.62641 0.134594
0.168373 -0.626902 0.132653
0.155933 -0.627763 0.126856
0.143187 -0.628707 0.12022
0.129405 -0.629967 0.110307
0.112345 -0.632256 0.0897079
0.0373008 -0.636746 0.0628161
0.0293905 -0.636065 0.0731659
0.0198183 -0.63589 0.0782734
0.00836101 -0.636272 0.0776349
-0.00547076 -0.637336 0.0699723
-0.0197641 -0.638513 0.0611786
-0.0355228 -0.640084 0.0483495
-0.05119 -0.6416 0.0361275
-0.113318 -0.633536 0.14841
-0.118968 -0.632395 0.16328
-0.125953 -0.631615 0.17446
-0.133475 -0.630984 0.184108
-0.140774 -0.630308 0.194202
-0.147895 -0.629599 0.204614
-0.155686 -0.629067 0.21322
-0.163548 -0.628561 0.221549
-0.17112 -0.627993 0.230495
-0.178805 -0.627462 0.239059
-0.186818 -0.627017 0.246739
-0.19648 -0.626971 0.250404
0.18635 -0.637713 0.120178
0.176911 -0.637562 0.124918
0.166485 -0.637757 0.126146
0.155358 -0.63819 0.124983
0.143091 -0.639003 0.120006
0.130277 -0.639981 0.113372
0.116627 -0.641217 0.104164
0.0996439 -0.643527 0.084202
0.0357084 -0.647797 0.0578493
0.0274552 -0.647195 0.0671818
0.0175411 -0.647114 0.071298
0.00643714 -0.647395 0.0717944
-0.00677957 -0.648307 0.0660258
-0.0203876 -0.649318 0.0592936
-0.035712 -0.650816 0.0477458
-0.0959298 -0.644747 0.134278
-0.102744 -0.643856 0.146332
-0.10993 -0.643079 0.15723
-0.117159 -0.642328 0.167869
-0.124484 -0.641616 0.178113
-0.131896 -0.640938 0.188001
-0.140095 -0.640476 0.195758
-0.1487 -0.640127 0.202407
-0.157305 -0.639784 0.208993
-0.165636 -0.639376 0.216193
-0.174325 -0.639066 0.222441
-0.18462 -0.639161 0.224735
0.173574 -0.648982 0.113173
0.163829 -0.648927 0.116932
0.153483 -0.649087 0.118587
0.142135 -0.649596 0.116837
0.12999 -0.650372 0.112498
0.116976 -0.651431 0.105425
0.103494 -0.652627 0.097045
0.0859104 -0.655181 0.0754943
0.0406551 -0.660076 0.0379422
0.0339182 -0.65894 0.0522635
0.0254869 -0.658369 0.0610958
0.0156279 -0.658262 0.0654367
0.00492497 -0.658423 0.0672002
-0.00743593 -0.659096 0.0640329
-0.0208841 -0.660091 0.0577845
-0.0359211 -0.661551 0.0470842
-0.0785908 -0.656043 0.119741
-0.0859818 -0.655263 0.130472
-0.0933441 -0.654488 0.141131
-0.100831 -0.653762 0.151311
-0.108471 -0.653092 0.160949
-0.116409 -0.652515 0.169684
-0.124371 -0.651955 0.178251
-0.132965 -0.651576 0.185091
-0.141674 -0.651234 0.191568
-0.150321 -0.650882 0.198141
-0.16034 -0.650897 0.201229
-0.17114 -0.651118 0.202386
0.160066 -0.660563 0.103822
0.150706 -0.660351 0.109054
0.140157 -0.660576 0.110154
0.128847 -0.661071 0.108721
0.11659 -0.661891 0.10422
0.103562 -0.662966 0.0973475
0.0902089 -0.664131 0.0896437
0.0721076 -0.666908 0.0668163
0.039613 -0.671039 0.0346726
0.0320492 -0.670139 0.0464311
0.0235339 -0.669572 0.0550572
0.0140588 -0.669331 0.0606285
0.00349146 -0.669449 0.0628441
-0.00878256 -0.670113 0.0599731
-0.0209868 -0.670741 0.0574419
-0.0382043 -0.672936 0.0403441
-0.069591 -0.666871 0.113235
-0.0768749 -0.666024 0.124359
-0.083972 -0.665137 0.135834
-0.0919009 -0.664509 0.144901
-0.100301 -0.664029 0.152594
-0.10889 -0.663612 0.1597
-0.117657 -0.663252 0.166267
-0.126136 -0.662817 0.173516
-0.134864 -0.66246 0.180047
-0.145329 -0.66259 0.182097
-0.1571 -0.663078 0.180877
0.145941 -0.672427 0.0926057
0.137552 -0.67183 0.101317
0.12671 -0.672157 0.101566
0.115325 -0.672676 0.100067
0.103194 -0.673454 0.0962041
0.0902575 -0.674506 0.0898677
0.0767903 -0.675725 0.0820349
0.0382 -0.682146 0.0302293
0.0230248 -0.680317 0.0534874
0.0139741 -0.679924 0.0603637
0.00340315 -0.680048 0.0625601
-0.0092087 -0.680845 0.0586695
-0.0211197 -0.681397 0.05701
-0.0413084 -0.684627 0.0311984
-0.0533517 -0.678634 0.0951651
-0.0605995 -0.677722 0.106661
-0.0679864 -0.67687 0.117601
-0.0754171 -0.676046 0.128266
-0.0842839 -0.675675 0.134869
-0.0930158 -0.675269 0.141769
-0.101839 -0.674898 0.148353
-0.110724 -0.674552 0.15471
-0.12001 -0.67433 0.159955
-0.130732 -0.67453 0.161437
-0.142842 -0.675127 0.159386
0.132603 -0.684043 0.0844248
0.124059 -0.68348 0.0926697
0.113086 -0.68385 0.0926427
0.102058 -0.684232 0.0925157
0.0900973 -0.684951 0.0894074
0.0765878 -0.686223 0.0814315
0.0620274 -0.687849 0.0703484
0.0362385 -0.693473 0.0240496
0.0290578 -0.69237 0.0371035
0.0233192 -0.690783 0.0544041
0.0144811 -0.690306 0.0619098
0.00368776 -0.690513 0.063405
-0.0070236 -0.690688 0.065185
-0.0218929 -0.692265 0.0546814
-0.0404061 -0.691607 0.0670992
-0.045996 -0.690082 0.0837384
-0.0522026 -0.688787 0.0983497
-0.0593214 -0.687809 0.110165
-0.0674159 -0.687162 0.119091
-0.0764156 -0.686812 0.125412
-0.0851727 -0.686393 0.132332
-0.0942576 -0.686084 0.138295
-0.104352 -0.686091 0.141508
-0.115743 -0.686493 0.141292
0.119096 -0.695768 0.0759216
0.110585 -0.695169 0.0843422
0.0998791 -0.695429 0.0853679
0.0885323 -0.695928 0.0843443
0.0762002 -0.696788 0.0802287
0.0622878 -0.698221 0.0712224
0.0472717 -0.700032 0.0590014
0.0302602 -0.702536 0.0408838
0.024297 -0.700988 0.0574361
0.0153171 -0.700553 0.0644631
0.004148 -0.700903 0.0647816
-0.00656505 -0.701087 0.0665307
-0.0213302 -0.702677 0.05631
-0.0289494 -0.701773 0.0673201
-0.0371407 -0.701082 0.0765091
-0.0449299 -0.700268 0.0867286
-0.0519079 -0.699197 0.0991083
-0.0597837 -0.698444 0.108778
-0.0688602 -0.6981 0.114977
-0.0778092 -0.69772 0.121469
-0.0872062 -0.697492 0.126675
-0.0990181 -0.698041 0.125326
0.105323 -0.707644 0.0667823
0.0971268 -0.706895 0.0763207
0.0859456 -0.707333 0.0759338
0.0747511 -0.707767 0.075588
0.0615942 -0.708946 0.0690425
0.0490844 -0.709854 0.0647677
0.0353182 -0.711217 0.0567308
0.0257676 -0.710982 0.0619929
0.0162493 -0.71074 0.0673107
0.00498531 -0.71114 0.0672998
-0.00617495 -0.711494 0.0676713
-0.0175491 -0.711919 0.0674723
-0.0270982 -0.711688 0.072697
-0.0362191 -0.71131 0.0791227
-0.0445546 -0.710667 0.0877372
-0.0533017 -0.710177 0.0950724
-0.0618169 -0.709618 0.102976
-0.0706883 -0.709189 0.109795
-0.0815 -0.709418 0.1112
-0.0935766 -0.710064 0.109196
0.0824371 -0.719159 0.0645036
0.0718913 -0.719333 0.0663789
0.0605217 -0.719829 0.0656495
0.048393 -0.720611 0.062608
0.0364474 -0.721306 0.0602822
0.0258827 -0.721458 0.0623548
0.0156105 -0.721497 0.0653499
0.00494149 -0.721683 0.0671505
-0.00577334 -0.721883 0.0688465
-0.0163892 -0.722043 0.0708704
-0.0264184 -0.721986 0.0746407
-0.0362234 -0.721848 0.0790517
-0.0461792 -0.721768 0.083007
-0.0562995 -0.721747 0.0864814
-0.0669109 -0.721899 0.0885724
0.0685775 -0.73114 0.0557
0.0588566 -0.730968 0.0603592
0.0473471 -0.731517 0.0593262
0.0363275 -0.73186 0.0599239
0.0259007 -0.731963 0.0624162
0.0154389 -0.732078 0.0648189
0.00492004 -0.732212 0.067069
-0.00554613 -0.732324 0.0694995
-0.0160539 -0.732449 0.0718257
-0.0267891 -0.732657 0.073506
-0.0364036 -0.732445 0.0784706
-0.0465061 -0.732417 0.0820003
-0.0624065 -0.7345 0.0690609
0.0650098 -0.743119 0.0441991
0.0560358 -0.742617 0.0513692
0.0464049 -0.742396 0.0563728
0.0358666 -0.742549 0.0584986
0.0256747 -0.742559 0.0617223
0.0153187 -0.742635 0.0644457
0.00478827 -0.742778 0.0666535
-0.00548754 -0.742819 0.0696476
-0.0160018 -0.742952 0.0719419
-0.0269258 -0.743239 0.0730571
-0.0384958 -0.743767 0.072345
-0.051796 -0.744938 0.0667521
0.0533409 -0.754266 0.0427827
0.0454248 -0.753303 0.0532995
0.0353813 -0.753251 0.0569967
0.0254398 -0.753157 0.061001
0.0152167 -0.753181 0.0641278
0.00464107 -0.753347 0.0661913
-0.00568019 -0.753408 0.0690434
-0.0163236 -0.753596 0.0709509
-0.0276729 -0.754058 0.0708191
-0.0400865 -0.754928 0.0676733
0.0510926 -0.76577 0.0356259
0.043787 -0.76451 0.0481446
0.0348156 -0.763991 0.0552435
0.0250372 -0.763824 0.0597606
0.0150783 -0.763737 0.0636988
0.00450741 -0.763906 0.0657701
-0.00601193 -0.764051 0.0680226
-0.0167366 -0.764277 0.0696894
-0.0287657 -0.765026 0.0675678
-0.043295 -0.766761 0.0583099
0.0418365 -0.775883 0.0419998
0.0339759 -0.774856 0.0526326
0.0245187 -0.774543 0.0581615
0.0148459 -0.77433 0.0629819
0.00448488 -0.774414 0.0656854
-0.00624864 -0.774654 0.0672864
-0.017566 -0.775134 0.0671944
-0.0301366 -0.776123 0.0635013
-0.0488908 -0.779631 0.0420228
0.0406234 -0.786956 0.038189
0.0331574 -0.785722 0.0500882
0.0243428 -0.785114 0.0576228
0.0148154 -0.784832 0.0628829
0.00463033 -0.784842 0.0661092
-0.00626052 -0.785158 0.0672235
-0.0177969 -0.785744 0.0664723
-0.0309008 -0.786984 0.061213
-0.0483599 -0.790029 0.0435034
0.0407957 -0.797402 0.0387634
0.0330108 -0.796289 0.0496465
0.0244069 -0.795571 0.0578268
0.015057 -0.795205 0.0636167
0.00493783 -0.795189 0.0670235
-0.00593672 -0.795507 0.0681659
-0.0176983 -0.796209 0.0667267
-0.0307641 -0.797462 0.0615653
-0.0470963 -0.800096 0.0471093
0.0407672 -0.807934 0.0387018
0.0329712 -0.806802 0.0495395
0.0245033 -0.806006 0.0581308
0.0152741 -0.805577 0.0642758
0.00514173 -0.805569 0.0676243
-0.00557295 -0.805825 0.069228
-0.0173566 -0.806555 0.0677011
-0.0302604 -0.807769 0.0629934
-0.0459067 -0.810165 0.0505004
0.0407833 -0.818438 0.0387817
0.0330784 -0.817238 0.0498921
0.0245864 -0.816438 0.0583937
0.0155188 -0.815925 0.0650192
0.00545191 -0.81589 0.0685468
-0.00524667 -0.816147 0.0701779
-0.0168725 -0.816824 0.0690976
-0.0296616 -0.818015 0.0647003
-0.0448596 -0.820267 0.0534787
0.0409611 -0.828853 0.039373
0.033428 -0.827546 0.0510032
0.0249288 -0.826735 0.059459
0.0157349 -0.826276 0.065675
0.00572918 -0.826212 0.0693698
-0.00498027 -0.826483 0.0709485
-0.0164991 -0.827127 0.0701659
-0.0292311 -0.828322 0.0659138
-0.0438761 -0.830372 0.0562725
0.0411108 -0.839273 0.0398757
0.0335976 -0.83793 0.051551
0.0251623 -0.837073 0.060187
0.0160126 -0.836585 0.0665193
0.0059654 -0.836543 0.0700684
-0.00461874 -0.836762 0.072004
-0.0161598 -0.837434 0.0711335
-0.0287635 -0.838596 0.0672365
-0.0429135 -0.840461 0.0590059
0.041359 -0.849631 0.0406898
0.0338636 -0.848254 0.0524003
0.0254237 -0.847385 0.0610017
0.0161826 -0.846935 0.0670341
0.00621567 -0.846855 0.0708097
-0.00430308 -0.847049 0.0729221
-0.0157591 -0.847696 0.072283
-0.0282178 -0.848816 0.068788
-0.0421985 -0.850643 0.0610212
0.0416599 -0.859949 0.0416709
0.0339743 -0.858648 0.0527639
0.0256473 -0.857704 0.0616993
0.0164469 -0.857227 0.0678376
0.00651879 -0.857129 0.0717109
-0.00397115 -0.857315 0.0738891
-0.0153807 -0.857956 0.0733663
-0.0277439 -0.859055 0.070129
-0.0416271 -0.860875 0.06262
0.0418652 -0.870306 0.0423492
0.0342218 -0.868959 0.0535552
0.0259 -0.867997 0.0624868
0.0168398 -0.86744 0.0690345
0.00687182 -0.867364 0.0727633
-0.00366721 -0.867583 0.0747722
-0.0149145 -0.868157 0.0747099
-0.0272114 -0.869248 0.071642
-0.0411378 -0.87113 0.063981
0.0420372 -0.880669 0.0429222
0.03462 -0.879175 0.0548183
0.0262211 -0.87824 0.0634861
0.0171017 -0.877708 0.0698309
0.00721368 -0.877591 0.0737819
-0.00335427 -0.877833 0.0756823
-0.0145777 -0.878409 0.0756701
-0.0268041 -0.879489 0.0727878
-0.0406146 -0.881352 0.0654405
-0.0596332 -0.885802 0.0433652
0.0420796 -0.891095 0.0430848
0.0347248 -0.88954 0.0551632
0.0263122 -0.888597 0.0637736
0.017276 -0.888011 0.0703587
0.00739978 -0.887889 0.0743289
-0.00314182 -0.888124 0.0762915
-0.014208 -0.888631 0.0767279
-0.0265487 -0.889794 0.0734886
-0.0402241 -0.891627 0.0665148
-0.0578261 -0.895439 0.0484838
0.0419329 -0.901621 0.0426492
0.0345528 -0.900052 0.0546418
0.02633 -0.898986 0.0638344
0.017323 -0.898375 0.0704971
0.00753971 -0.898201 0.0747362
-0.00305485 -0.898472 0.0765249
-0.0140567 -0.898956 0.0771387
-0.0263654 -0.900127 0.0739781
-0.040144 -0.902051 0.0666891
-0.0575244 -0.905821 0.0492812
0.0420351 -0.911998 0.0430013
0.0345963 -0.910436 0.0547951
0.0263184 -0.909384 0.0638041
0.0172896 -0.908776 0.0703895
0.00750165 -0.908604 0.0746046
-0.00303372 -0.908848 0.0765612
-0.0141036 -0.90938 0.0769622
-0.0264001 -0.910567 0.0738284
-0.0401579 -0.912517 0.0665905
-0.0576995 -0.916444 0.0487102
0.0420227 -0.922434 0.0429905
0.0346088 -0.920832 0.0548509
0.0262656 -0.9198 0.0636461
0.0172502 -0.919175 0.0702631
0.0075302 -0.918962 0.0746746
-0.00303556 -0.91923 0.0765286
-0.014136 -0.919791 0.0768288
-0.0264509 -0.921011 0.0736317
-0.0400935 -0.922935 0.0667193
-0.0577834 -0.927015 0.0484007
0.0421764 -0.932763 0.0435054
0.0345998 -0.931232 0.0548398
0.0264012 -0.930099 0.0640715
0.0172582 -0.92954 0.0702823
0.00745532 -0.929374 0.0744316
-0.00303417 -0.929604 0.0765058
-0.014135 -0.930176 0.0767944
-0.0263807 -0.931381 0.0737897
-0.0401343 -0.933403 0.0665429
-0.0577176 -0.937499 0.0485211
0.0420669 -0.943244 0.0431874
0.0346973 -0.941562 0.0551618
0.0263777 -0.940484 0.0640043
0.0173083 -0.939873 0.07043
0.00742626 -0.939753 0.0743273
-0.00296529 -0.939932 0.0766851
-0.0141729 -0.940578 0.0766444
-0.0263096 -0.941743 0.0739503
-0.0400086 -0.943772 0.0668494
-0.0576887 -0.947995 0.0485359
0.0420767 -0.953645 0.0432469
0.0348632 -0.951841 0.0556977
0.0263627 -0.950858 0.0639633
0.0173684 -0.950193 0.0706086
0.00749264 -0.950069 0.0745119
-0.00302445 -0.950328 0.076481
-0.0141711 -0.950951 0.0766126
-0.026318 -0.952144 0.0738782
-0.0398994 -0.954141 0.0671081
-0.0573904 -0.958331 0.0493239
0.0421833 -0.963979 0.0436127
0.0347039 -0.962313 0.0552161
0.0263723 -0.96121 0.0639986
0.0173827 -0.960533 0.070647
0.00755073 -0.960382 0.0746715
-0.00302338 -0.960682 0.0764573
-0.0141453 -0.961303 0.0766516
-0.0263579 -0.962557 0.0737133
-0.0398305 -0.964525 0.0672503
-0.057339 -0.968799 0.049403
0.0421486 -0.974394 0.0435314
0.0346129 -0.972738 0.0549482
0.0263489 -0.971576 0.0639319
0.0174213 -0.970851 0.0707594
0.00751225 -0.970748 0.0745387
-0.00299499 -0.971013 0.0765154
-0.014226 -0.971712 0.0763752
-0.0263148 -0.972914 0.073792
-0.0398288 -0.974942 0.0671973
-0.057506 -0.979387 0.0488553
0.0422768 -0.984696 0.0439655
0.0346385 -0.983083 0.0550451
0.0263178 -0.981941 0.0638409
0.0173781 -0.981213 0.0706217
0.00751802 -0.981079 0.0745398
-0.00305228 -0.98139 0.0763169
-0.014298 -0.982112 0.0761243
-0.0263569 -0.983316 0.0736211
-0.0399328 -0.985416 0.0668376
-0.0577826 -0.990039 0.0479929
0.042383 -0.995003 0.04433
0.0345028 -0.993527 0.0546372
0.0262702 -0.99231 0.0636994
0.017343 -0.991565 0.0705089
0.00749487 -0.991423 0.0744535
-0.00307579 -0.991741 0.0762196
-0.0142968 -0.99246 0.0760906
-0.0262773 -0.993637 0.0738067
-0.0401446 -0.995952 0.0661654
-0.0578405 -1.00056 0.0477585
0.0421583 -1.00553 0.0436473
0.0343711 -1.00396 0.0542421
0.0262617 -1.00265 0.0636786
0.0173076 -1.00191 0.0703949
0.0074716 -1.00176 0.0743668
-0.00305134 -1.00205 0.076266
-0.0143289 -1.00282 0.0759582
-0.02628 -1.004 0.0737511
-0.0401242 -1.00634 0.0661666
-0.0579062 -1.01107 0.0475018
0.0423114 -1.01579 0.0441603
0.0344657 -1.01424 0.0545549
0.026287 -1.01296 0.0637624
0.0173463 -1.0122 0.070508
0.00739443 -1.01213 0.0741168
-0.00304396 -1.01237 0.0762612
-0.014288 -1.01313 0.0760422
-0.0263077 -1.01438 0.0736224
-0.0401736 -1.01677 0.0659655
0.0343684 0.941185 0.242257
0.0355474 0.930286 0.241429
-0.574715 0.728263 0.151461
-0.573751 0.716071 0.163232
-0.576755 0.717356 0.153294
-0.56831 0.706119 0.171181
-0.574707 0.705734 0.164131
-0.576965 0.70737 0.153568
-0.575107 0.711031 0.139438
-0.569129 0.695863 0.171955
-0.575157 0.695658 0.164603
-0.577131 0.697414 0.153805
-0.575821 0.700773 0.14015
-0.557886 0.688696 0.175047
-0.569464 0.685852 0.172323
-0.574995 0.685885 0.164557
-0.576986 0.687616 0.153777
-0.576219 0.690681 0.140592
-0.557522 0.678999 0.174827
-0.568146 0.676632 0.171303
-0.573243 0.676871 0.163167
-0.575089 0.678656 0.152258
-0.574811 0.68146 0.139486
-0.555054 0.670287 0.172852
-0.565217 0.668161 0.168931
-0.569936 0.668578 0.160464
-0.571587 0.670439 0.149374
-0.571596 0.673084 0.136832
0.04348 0.822279 0.22247
-0.548822 0.663298 0.16774
-0.559381 0.661016 0.16412
-0.56429 0.661347 0.155784
-0.566091 0.663126 0.144793
-0.565912 0.665839 0.132062
-0.4432 0.745903 -0.0820334
0.0436603 0.810927 0.222273
-0.535958 0.659293 0.157101
-0.546147 0.657218 0.153101
-0.551329 0.657434 0.144923
-0.551251 0.660077 0.132263
-0.43679 0.73533 -0.0737736
0.0448619 0.800001 0.221428
-0.438495 0.723823 -0.0720984
-0.430478 0.714014 -0.065295
-0.397342 0.752524 -0.209536
-0.0426581 0.749544 0.2384
-0.421041 0.704837 -0.0597365
-0.387864 0.742895 -0.203617
-0.0388254 0.739964 0.235846
-0.417945 0.695526 -0.062347
-0.0398903 0.73095 0.223547
-0.412274 0.684623 -0.0534294
0.0408336 0.743961 0.210452
-0.0366996 0.721064 0.221397
-0.401892 0.675799 -0.0486457
-0.406581 0.676424 -0.0583112
-0.480141 0.608695 0.136656
-0.39844 0.666584 -0.0515391
0.0356804 0.72171 0.200441
-0.0356081 0.701662 0.207564
-0.389013 0.65728 -0.0458693
0.0367207 0.710722 0.199697
-0.033963 0.691123 0.206421
-0.465565 0.592161 0.137544
-0.0788798 0.774792 -0.29942
-0.32944 0.687945 -0.183407
-0.0292532 0.681739 0.203259
-0.461967 0.583515 0.13468
-0.374597 0.639298 -0.0443566
-0.328655 0.677103 -0.183961
0.0302244 0.687977 0.19056
-0.0336684 0.671307 0.193055
-0.457757 0.575092 0.131315
-0.37097 0.630048 -0.0473692
-0.317986 0.667731 -0.178877
0.0293415 0.676284 0.191064
-0.0319126 0.660775 0.191835
-0.45317 0.566788 0.127644
-0.363271 0.619923 -0.0401199
0.0320951 0.665933 0.189208
-0.0281877 0.650961 0.189308
-0.44906 0.558262 0.124362
-0.351641 0.611367 -0.0362043
-0.360476 0.610293 -0.0424034
0.0353484 0.655747 0.187027
-0.435659 0.551055 0.126294
-0.444877 0.549734 0.12102
-0.349538 0.601431 -0.0378885
-0.296952 0.637542 -0.168175
0.0402888 0.646144 0.183751
0.0349576 0.646574 0.173969
-0.0306504 0.630008 0.177719
-0.431891 0.542319 0.123308
-0.44011 0.541402 0.117202
-0.33871 0.592481 -0.0332337
-0.29015 0.626507 -0.159572
0.0331054 0.634535 0.175115
-0.427746 0.533699 0.120017
-0.434679 0.533287 0.112844
-0.333986 0.583522 -0.0371228
-0.281278 0.616288 -0.152784
-0.28776 0.616259 -0.161541
0.0344744 0.623643 0.174155
-0.0339521 0.608727 0.166672
-0.423702 0.525012 0.116808
-0.428219 0.525519 0.107645
-0.32421 0.574091 -0.0315196
-0.270366 0.606838 -0.147746
-0.437048 0.544801 -0.0165811
0.0371279 0.613191 0.172354
-0.0389919 0.598018 0.156834
-0.419893 0.516208 0.11379
-0.319966 0.564882 -0.0349831
-0.0511911 0.67131 -0.291071
-0.271941 0.595037 -0.146256
-0.436237 0.534647 -0.017169
0.0405328 0.602981 0.170063
-0.0376297 0.587295 0.155868
-0.415541 0.507577 0.110331
-0.308037 0.556189 -0.0311209
-0.31178 0.557109 -0.0417512
-0.0518736 0.658955 -0.290374
-0.268135 0.585286 -0.149434
0.0441382 0.592817 0.16764
-0.0416991 0.576911 0.145359
-0.410845 0.499039 0.106594
0.239819 0.737833 -0.437014
-0.304622 0.546605 -0.0338739
-0.0511171 0.647146 -0.2909
-0.253807 0.577029 -0.147293
-0.425725 0.515418 -0.0126027
0.0398203 0.582175 0.157094
-0.040063 0.566268 0.144203
0.269293 0.690485 -0.187949
-0.398807 0.490982 0.109813
-0.404863 0.490927 0.101816
0.240635 0.724933 -0.437587
-0.292015 0.538067 -0.0305017
-0.249628 0.567339 -0.150774
-0.425577 0.505008 -0.012616
0.0411599 0.571228 0.156151
0.258327 0.674013 -0.180013
-0.395352 0.481927 0.107097
0.229692 0.705195 -0.412081
-0.288421 0.528485 -0.033388
-0.0418763 0.62382 -0.283082
-0.238944 0.557638 -0.145414
-0.41649 0.495669 -0.0069027
-0.424087 0.495092 -0.0137924
0.0440508 0.560782 0.154185
0.255062 0.660229 -0.177652
-0.391674 0.472926 0.104201
-0.276683 0.519543 -0.0292228
-0.0437977 0.611063 -0.281349
-0.234856 0.547853 -0.148797
-0.417064 0.485 -0.00629737
-0.421984 0.485389 -0.0155008
-0.101019 0.641497 -0.550543
0.436235 0.629416 0.186729
0.0484857 0.550815 0.151202
0.0427777 0.551092 0.141593
0.247725 0.64273 -0.157119
-0.38797 0.463908 0.101285
-0.273776 0.509662 -0.0315289
-0.0464321 0.598082 -0.279014
-0.228193 0.53667 -0.139961
-0.416416 0.474775 -0.00674481
-0.419933 0.475655 -0.0171634
-0.0977753 0.627594 -0.536729
-0.0995031 0.629593 -0.551773
0.0420617 0.539458 0.142012
0.23511 0.626019 -0.148059
-0.384328 0.454843 0.0984189
-0.269254 0.500316 -0.0351613
-0.215122 0.52771 -0.136541
-0.41438 0.465036 -0.00838813
-0.0978318 0.615138 -0.536447
0.412902 0.599779 0.185824
0.0445048 0.528829 0.140334
0.227428 0.611013 -0.142544
-0.381418 0.445508 0.0961415
-0.258287 0.490993 -0.0302823
-0.263561 0.491333 -0.0397539
-0.0414412 0.573361 -0.267667
-0.0466712 0.573934 -0.27859
-0.410866 0.455794 -0.0113039
-0.0898032 0.603033 -0.527261
0.342863 0.556624 0.292544
0.396901 0.584825 0.18101
0.0479811 0.518506 0.13797
0.0414901 0.518532 0.128864
0.22331 0.597213 -0.139592
-0.370297 0.436904 0.100227
-0.37842 0.436184 0.0937933
-0.25476 0.481247 -0.0330821
-0.0441996 0.560424 -0.26525
-0.407301 0.446545 -0.0142631
-0.0828522 0.59055 -0.517057
0.446484 0.526163 0.559035
0.336866 0.544977 0.282445
0.36012 0.56591 0.174581
0.0420811 0.507307 0.128417
-0.369398 0.426865 0.0995679
-0.375335 0.426868 0.0913762
-0.240214 0.473022 -0.0310429
-0.249869 0.471924 -0.0369934
-0.187974 0.498629 -0.130244
-0.0454293 0.548026 -0.264114
-0.404441 0.437035 -0.0166153
-0.0769501 0.577716 -0.505881
0.331188 0.533421 0.272169
0.357298 0.55291 0.176093
0.351097 0.553149 0.165943
0.0447532 0.496712 0.126578
0.0411284 0.497606 0.115533
0.140447 0.577931 -0.291856
-0.367713 0.417079 0.098281
-0.371866 0.417657 0.0886491
-0.238277 0.462693 -0.0325401
-0.178508 0.488287 -0.123646
-0.0383683 0.536106 -0.254669
-0.0457327 0.535951 -0.263755
-0.402184 0.427307 -0.0184473
-0.0712562 0.564836 -0.494539
0.325867 0.521964 0.26169
0.34509 0.539262 0.169349
0.349933 0.571857 -0.0478412
0.0497653 0.4868 0.123174
0.0408604 0.486109 0.115666
-0.0388555 0.471969 0.103056
0.127329 0.56125 -0.281386
-0.365567 0.40743 0.0966258
-0.367971 0.408556 0.0855807
-0.234532 0.452929 -0.0355004
-0.16826 0.478174 -0.117666
-0.0411475 0.523245 -0.252256
-0.0438038 0.524607 -0.265266
-0.391155 0.418456 -0.0143184
-0.399652 0.417655 -0.0205164
-0.0634777 0.552682 -0.48516
0.435124 0.493619 0.526504
0.325919 0.510087 0.261506
0.319575 0.510233 0.251755
0.333797 0.525914 0.162117
0.319685 0.552526 -0.0426539
0.0426183 0.475217 0.114434
-0.0378612 0.461049 0.102337
0.196173 0.537107 -0.105264
-0.362642 0.398013 0.0943486
-0.362644 0.399878 0.0813597
-0.229439 0.443562 -0.0395518
-0.157366 0.468233 -0.112181
-0.0320094 0.512013 -0.244557
-0.0411842 0.511287 -0.252126
-0.390093 0.408306 -0.0151204
-0.396555 0.408171 -0.0230727
-0.0634361 0.540326 -0.485003
-0.0689135 0.550415 -0.562809
0.432459 0.483038 0.515109
0.425612 0.483011 0.505879
0.316996 0.497636 0.253067
0.312958 0.498414 0.24201
0.330581 0.512905 0.163899
0.318862 0.511582 0.157112
0.301646 0.536895 -0.0453984
0.0452608 0.464575 0.112606
0.0415157 0.465402 0.101607
-0.0419322 0.450543 0.0917242
0.112738 0.529649 -0.254225
-0.350918 0.389448 0.098029
-0.358865 0.38884 0.0913912
-0.219072 0.43383 -0.0340239
-0.0351424 0.499088 -0.241873
-0.038042 0.500331 -0.254641
-0.389588 0.397977 -0.0154455
-0.392362 0.399012 -0.0265716
-0.0556141 0.528196 -0.475674
0.417428 0.470989 0.497044
0.309435 0.485575 0.243877
0.314047 0.498182 0.15987
0.305099 0.497634 0.151482
0.0481794 0.453997 0.110592
0.0410639 0.453848 0.101871
-0.0380709 0.440447 0.0889871
0.181001 0.506068 -0.0797692
0.101612 0.513933 -0.245403
-0.348714 0.379762 0.0963357
-0.354267 0.37989 0.087778
-0.215895 0.423807 -0.036511
-0.147756 0.446525 -0.105542
-0.0252819 0.48808 -0.234776
-0.036353 0.486791 -0.240779
-0.389282 0.38759 -0.0156004
-0.048025 0.515995 -0.466135
0.41266 0.459852 0.486607
0.303535 0.47397 0.233745
0.297699 0.483581 0.155825
0.0415033 0.442556 0.101529
-0.042277 0.429874 0.0784396
0.0962649 0.497941 -0.225853
0.0977575 0.500487 -0.242308
-0.345831 0.370266 0.0941035
-0.349509 0.370954 0.0840379
-0.21146 0.414141 -0.0400103
-0.0296706 0.474825 -0.231085
-0.0358486 0.475033 -0.241102
-0.389425 0.377069 -0.015372
-0.0406582 0.503729 -0.4564
0.407582 0.448631 0.476309
0.400116 0.448448 0.467383
0.306961 0.463019 0.23163
0.298188 0.462513 0.223292
0.283125 0.469526 0.150798
0.0426243 0.431459 0.100725
0.23316 0.486481 -0.0431096
-0.0395412 0.41942 0.0764849
0.0881454 0.48333 -0.219449
-0.342264 0.360953 0.0913292
-0.344862 0.361951 0.0803864
-0.0320709 0.462208 -0.229026
-0.380602 0.367442 -0.0093292
-0.389223 0.366662 -0.0154388
-0.0265674 0.48917 -0.420436
-0.0320391 0.489668 -0.431641
0.399775 0.436728 0.467323
0.391184 0.436266 0.458956
0.298494 0.450736 0.222977
0.294848 0.451576 0.21166
0.283087 0.457551 0.150709
0.26979 0.455858 0.145093
0.0444309 0.420547 0.099456
0.0417808 0.421632 0.0876836
-0.0366155 0.409003 0.0743958
0.081023 0.469086 -0.213826
-0.338916 0.351552 0.0887287
-0.340639 0.352791 0.0770729
-0.0277501 0.449585 -0.217439
-0.0319958 0.450348 -0.228999
-0.380893 0.356882 -0.00898054
-0.387321 0.356766 -0.0169588
-0.0201903 0.476663 -0.409897
-0.0256338 0.477159 -0.421108
0.386406 0.425124 0.448515
0.290936 0.438704 0.213815
0.262532 0.442029 0.149427
0.0471282 0.409869 0.0975821
0.0412398 0.410061 0.0880147
-0.0339271 0.398504 0.0724747
0.0700784 0.45185 -0.190168
-0.326053 0.34313 0.0916151
-0.33536 0.342188 0.0859641
-0.336389 0.34361 0.0737389
-0.0303644 0.43697 -0.215225
-0.379605 0.346795 -0.00997319
-0.384012 0.347274 -0.019682
-0.0160679 0.463505 -0.397398
0.467631 0.426515 0.459568
0.383232 0.414364 0.437271
0.291365 0.426972 0.21343
0.286439 0.427462 0.202863
0.247536 0.42804 0.144853
0.0506389 0.399392 0.095156
0.0419001 0.398823 0.0875245
-0.0309102 0.388078 0.0703208
0.060095 0.437001 -0.182367
-0.105044 0.392802 -0.0682088
-0.323155 0.333541 0.0893838
-0.331185 0.332975 0.082708
-0.331758 0.334505 0.0701003
-0.0242463 0.424924 -0.205152
-0.03137 0.424842 -0.214322
-0.367493 0.338078 -0.00668445
-0.377601 0.336909 -0.0115728
-0.379164 0.338203 -0.02372
-0.00439339 0.448485 -0.359843
-0.0124394 0.448195 -0.368675
-0.0142092 0.44973 -0.382971
0.380166 0.403613 0.425951
0.284659 0.415173 0.203783
0.246151 0.415833 0.145604
0.240697 0.41619 0.135294
0.0425865 0.387594 0.0870165
-0.0269229 0.377892 0.0674791
0.0588847 0.422756 -0.16648
0.0551844 0.42364 -0.178506
-0.104719 0.381564 -0.068413
-0.319063 0.324265 0.0862113
-0.325862 0.324049 0.0785419
-0.0286102 0.411878 -0.201542
-0.0297843 0.413455 -0.215532
-0.366522 0.327871 -0.00740699
-0.374514 0.327321 -0.0140927
-0.00229303 0.434876 -0.345792
-0.0105496 0.434527 -0.354415
-0.0118917 0.436152 -0.369014
0.386205 0.393397 0.422725
0.375732 0.392521 0.415297
0.286249 0.403736 0.202717
0.279515 0.403765 0.193215
0.23369 0.402585 0.13955
0.0436038 0.376452 0.0862822
0.0405708 0.377376 0.074743
-0.0224932 0.367796 0.0643239
-0.0281947 0.36801 0.0547677
0.0527885 0.409144 -0.161736
-0.099026 0.370014 -0.0587004
-0.160913 0.355031 -0.0244202
-0.314728 0.315025 0.0828481
-0.319788 0.315289 0.0737804
-0.02105 0.400278 -0.192676
-0.0304993 0.399557 -0.199935
-0.364392 0.317985 -0.00910581
-0.369946 0.318125 -0.0178699
-0.0060737 0.421647 -0.342437
-0.00782655 0.423124 -0.356629
0.370143 0.381152 0.405218
0.279313 0.391887 0.193211
0.278717 0.393411 0.18004
0.230805 0.39006 0.141245
0.22281 0.389773 0.132568
0.0456113 0.365561 0.0848709
0.0385536 0.365445 0.0760979
-0.0179787 0.357692 0.0611086
-0.0272194 0.356992 0.0540602
-0.0977493 0.359045 -0.0596471
-0.299843 0.306957 0.084268
-0.310333 0.305771 0.0794377
-0.312284 0.306866 0.0678853
-0.0254691 0.387292 -0.189051
-0.0306512 0.38773 -0.199735
-0.351546 0.30936 -0.00636374
-0.361494 0.308298 -0.0114527
-0.00200874 0.40869 -0.330151
0.364869 0.369853 0.394975
0.361582 0.370648 0.383897
0.282116 0.380737 0.191422
0.274688 0.380599 0.182331
0.216959 0.376561 0.136138
0.211383 0.376863 0.125977
0.0383508 0.353993 0.0762034
-0.0148056 0.347218 0.0588439
-0.0255796 0.346142 0.0528784
-0.147614 0.334706 -0.0208799
-0.29771 0.297057 0.0826462
-0.305938 0.296486 0.0760274
-0.0282663 0.374782 -0.18673
-0.0272409 0.376858 -0.202418
-0.350694 0.299085 -0.00698465
-0.357987 0.298757 -0.0143136
0.362406 0.359186 0.383277
0.355467 0.359144 0.374071
0.274962 0.368841 0.182047
0.274843 0.370433 0.168555
0.216934 0.364796 0.13606
0.203311 0.363164 0.13098
0.039595 0.342907 0.0753123
-0.0232708 0.335453 0.051219
-0.146792 0.323834 -0.0214738
-0.294609 0.287396 0.0802671
-0.300922 0.287331 0.0721285
-0.0204009 0.363311 -0.178161
-0.0294346 0.362728 -0.185719
-0.348794 0.289088 -0.00848343
-0.353234 0.289522 -0.018224
0.349436 0.347661 0.364203
0.33986 0.347031 0.356393
0.333717 0.347167 0.346778
0.276395 0.357357 0.181069
0.270603 0.357604 0.170997
0.199819 0.350617 0.133094
0.195156 0.351118 0.122405
0.0419532 0.332088 0.073654
0.0337678 0.331704 0.0656644
-0.0198366 0.325028 0.0487563
-0.1352 0.314061 -0.0166014
-0.141226 0.314162 -0.0257525
-0.290687 0.277923 0.0772462
-0.295234 0.278309 0.0677005
-0.0248585 0.350427 -0.174535
-0.0296178 0.350946 -0.1855
0.00619128 0.367225 -0.274895
-0.337613 0.279912 -0.00428158
-0.346183 0.279266 -0.010578
0.332349 0.335232 0.347329
0.323197 0.334701 0.339335
0.317082 0.334839 0.329717
0.279003 0.346137 0.179388
0.268575 0.345321 0.172105
0.198562 0.338623 0.133798
0.186767 0.337459 0.127653
0.0339411 0.320359 0.0655145
-0.0163605 0.314591 0.0462637
-0.0209133 0.315072 0.0358359
-0.122926 0.304414 -0.0122043
-0.131832 0.303802 -0.0191592
-0.277033 0.269332 0.0797461
-0.286585 0.268468 0.0740849
-0.288668 0.269465 0.0625818
-0.0275397 0.338037 -0.172328
0.00145661 0.352256 -0.255652
-0.336085 0.269786 -0.00546424
-0.342373 0.269735 -0.0136759
0.326652 0.323838 0.337304
0.31411 0.322578 0.331156
0.30426 0.321899 0.323588
0.298382 0.322084 0.313862
0.26815 0.333422 0.172246
0.266332 0.334553 0.159768
0.182294 0.324768 0.130411
0.0363075 0.309534 0.0638432
0.0291248 0.309397 0.0551652
-0.0217169 0.30359 0.0364067
-0.121756 0.293588 -0.0130656
-0.273731 0.259637 0.0772233
-0.281094 0.259325 0.0698376
-0.0215643 0.326143 -0.162308
-0.0270186 0.326468 -0.172678
0.00679846 0.338205 -0.229656
0.000987443 0.338474 -0.240027
0.00183714 0.340403 -0.255875
-0.323918 0.26079 -0.00202411
-0.333664 0.259877 -0.00739078
-0.335045 0.26106 -0.0197204
0.306989 0.310898 0.321931
0.295009 0.309772 0.315555
0.286824 0.309456 0.307119
0.285943 0.310714 0.294614
0.269554 0.321937 0.171283
0.263039 0.322011 0.161659
0.180145 0.312641 0.131694
0.175524 0.313119 0.121041
0.0285735 0.29789 0.0555252
-0.0202032 0.292664 0.0353117
-0.1102 0.283699 -0.00806832
-0.112628 0.284659 -0.0200212
-0.258769 0.251251 0.0788
-0.268849 0.250299 0.0734742
-0.273132 0.250735 0.0636584
-0.0222054 0.314303 -0.161739
0.00222583 0.325191 -0.225877
0.002778 0.327005 -0.241403
-0.322745 0.250544 -0.00291014
-0.329734 0.250326 -0.0105709
0.287859 0.298111 0.306387
0.278215 0.297492 0.298779
0.27319 0.297849 0.288595
0.274382 0.31119 0.168255
0.262954 0.310198 0.161599
0.179406 0.300849 0.132079
0.169485 0.300149 0.124829
0.0286732 0.286542 0.0554304
-0.0181671 0.281852 0.0338411
-0.0987044 0.273755 -0.00298067
-0.10545 0.273688 -0.0116507
-0.255801 0.241409 0.0765491
-0.263187 0.241109 0.06912
-0.017378 0.30217 -0.150842
-0.0218659 0.302708 -0.161947
0.00578889 0.310895 -0.198731
0.000957187 0.311376 -0.209786
-0.310819 0.241412 0.000789997
-0.320335 0.240593 -0.00481711
-0.322313 0.24159 -0.0166547
0.280677 0.286453 0.297249
0.270064 0.285641 0.290205
0.263771 0.285727 0.280744
0.264004 0.298635 0.16085
0.259654 0.299167 0.149901
0.164573 0.287479 0.127895
0.0293989 0.27534 0.0548982
0.0230723 0.2754 0.0456358
-0.0158652 0.27109 0.0321795
-0.0861756 0.264007 0.00137618
-0.0953866 0.26338 -0.00546081
-0.240094 0.233071 0.0776529
-0.251999 0.231741 0.0736545
-0.256776 0.232052 0.0641837
-0.0189004 0.290158 -0.149588
0.00641038 0.297626 -0.184299
0.000656909 0.297878 -0.194568
-0.309621 0.231146 -0.000114072
-0.316566 0.23095 -0.00784707
0.274066 0.274922 0.287801
0.262232 0.273872 0.281471
0.254527 0.273666 0.272825
0.250324 0.274179 0.262168
0.266151 0.2873 0.159433
0.257971 0.287021 0.150824
0.161219 0.275187 0.129964
0.155441 0.275386 0.120119
0.0208226 0.263546 0.0471983
-0.0849208 0.253135 0.000455925
-0.087739 0.253956 -0.0112105
-0.238633 0.222822 0.0765675
-0.247681 0.222164 0.070363
-0.249858 0.223061 0.0588544
-0.0133399 0.278244 -0.139309
-0.0168666 0.278978 -0.151133
0.00255984 0.284963 -0.181185
-0.297133 0.22207 0.00318554
-0.307257 0.221146 -0.0019749
-0.310907 0.221719 -0.0124379
0.268614 0.263629 0.277702
0.256159 0.262472 0.27175
0.246883 0.261952 0.264014
0.238354 0.26158 0.255868
0.234394 0.262134 0.245064
0.257334 0.27511 0.151108
0.158485 0.263059 0.131636
0.148692 0.262414 0.124398
0.0206597 0.252168 0.0472924
0.0177292 0.252955 0.0356415
-0.0741691 0.242924 0.00619241
-0.0808446 0.242881 -0.00258001
-0.235767 0.21288 0.0744057
-0.24302 0.212634 0.0668059
-0.0133905 0.266603 -0.139218
0.00429652 0.272068 -0.167736
-0.296694 0.211603 0.0029022
-0.304291 0.211269 -0.00432899
0.253656 0.25178 0.259972
0.24002 0.250405 0.254767
0.229777 0.249699 0.247637
0.221956 0.249472 0.239111
0.217747 0.249965 0.228447
0.256889 0.263251 0.151274
0.253137 0.263874 0.139958
0.156718 0.251158 0.132689
0.145115 0.250153 0.126632
0.0222248 0.241162 0.0461704
0.013434 0.240696 0.0386697
-0.0722267 0.232181 0.00476213
0.00961245 0.251219 -0.0703894
-0.219247 0.204546 0.0749989
-0.231658 0.20319 0.0712921
-0.237516 0.203254 0.0626001
-0.00807167 0.254671 -0.12878
-0.0112775 0.255444 -0.140819
0.00717973 0.260973 -0.169949
-0.283266 0.202659 0.00550131
-0.295124 0.20139 0.00169687
-0.300533 0.201551 -0.00733328
0.223786 0.238342 0.237906
0.214059 0.237746 0.230519
0.206868 0.237644 0.22164
0.202507 0.238099 0.211057
0.256972 0.251507 0.151116
0.250209 0.251521 0.141663
0.142294 0.23808 0.128378
0.0113235 0.228933 0.0401496
-0.0675987 0.221995 0.00133203
-0.216914 0.194423 0.0732538
-0.225462 0.193917 0.0665815
0.000279643 0.243408 -0.120705
-0.00908694 0.242847 -0.127946
0.00846374 0.248056 -0.156201
-0.283075 0.192115 0.00541622
-0.293152 0.191258 0.000164413
-0.294869 0.192222 -0.0118998
0.220197 0.227448 0.226748
0.206823 0.226161 0.22155
0.19688 0.22553 0.214341
0.188075 0.225117 0.20647
0.182409 0.225309 0.196695
0.248409 0.239417 0.142671
0.139674 0.226077 0.129994
0.137745 0.227013 0.117729
0.0106869 0.217494 0.0405848
-0.0577613 0.211512 0.00780487
0.00504243 0.225827 -0.052742
-0.201134 0.185797 0.0745144
-0.212533 0.184713 0.0699511
-0.217096 0.18505 0.0602086
-0.00533367 0.230629 -0.116336
-0.00867675 0.231338 -0.128218
-0.281844 0.181797 0.00448986
-0.290212 0.181323 -0.00215685
0.203367 0.215301 0.210313
0.18805 0.213666 0.206377
0.177399 0.212908 0.199661
0.170103 0.212785 0.19091
0.165124 0.213103 0.180724
0.137143 0.214119 0.131553
0.131629 0.214341 0.121636
0.0120959 0.206475 0.0395701
0.00399701 0.20617 0.0316182
-0.0545297 0.200984 0.00542686
-0.199857 0.175402 0.0735743
-0.207711 0.175063 0.0663131
-0.00811349 0.218486 -0.114152
-0.267435 0.172939 0.00637095
-0.27981 0.171644 0.00291368
-0.285816 0.171674 -0.00566335
-0.304333 0.200391 -0.332175
0.336654 0.224633 0.170923
0.180072 0.201981 0.19792
0.168848 0.201129 0.191586
0.161194 0.20094 0.183073
0.153852 0.200809 0.174376
0.15085 0.201491 0.162944
0.133716 0.20202 0.133691
0.126627 0.201938 0.124817
0.0029027 0.194665 0.0323879
-0.196656 0.165386 0.0711814
-0.201888 0.165579 0.0619142
-0.00452471 0.206307 -0.102478
