0.098657 0.167874 0.167357
-0.031547 -0.226208 -0.142004
0.246325 -0.411872 0.149173
0.008033 0.187516 0.227168
-0.064130 -0.361170 0.257932
0.052421 0.022691 0.036947
-0.396595 -0.574623 -0.178360
-0.089286 -0.026500 -0.195348
-0.152456 0.264263 -0.427315
-0.303226 -0.427230 0.301395
0.037883 0.180504 0.153871
0.042509 -0.672355 0.162888
-0.005458 -0.184131 -0.219847
-0.091889 -0.594073 -0.028613
-0.396590 0.305606 0.322089
-0.460133 0.341470 0.343310
-0.157120 -0.566632 -0.107127
-0.356066 -0.423828 0.304502
0.258444 -0.047529 0.172801
-0.198525 -0.483105 0.312621
0.155901 0.382495 -0.194489
-0.134360 -0.407806 -0.353670
0.060949 0.411373 -0.179724
0.165599 0.101963 -0.050656
0.017676 -0.411344 0.069049
0.023335 -0.319685 0.042347
-0.182208 -0.339874 -0.448256
-0.222945 -0.297463 -0.518484
0.077788 -0.077886 -0.424510
0.130981 -0.510382 0.098681
0.049323 0.222778 0.053415
-0.185907 -0.492901 0.248061
0.173106 -0.445589 0.090260
0.245802 -0.026068 0.412803
0.009661 0.259064 0.154944
0.065377 -0.746523 0.031568
0.000867 0.332550 0.117456
-0.137859 0.128432 0.152384
0.040042 -0.871279 0.092333
-0.275964 -0.445085 0.461854
0.255692 -0.426784 0.153319
0.414070 0.708585 0.322243
-0.098649 0.005258 -0.215238
0.079841 0.512552 0.414227
-0.044255 0.056442 -0.489137
0.112257 0.037398 -0.124666
0.099746 0.324101 0.061679
0.110013 -0.545492 0.129736
0.019971 -0.401442 0.069911
0.662917 -0.191485 0.289662
-0.068624 -0.114300 0.324802
-0.133655 -0.505959 0.230430
0.009919 0.179141 0.223642
-0.043311 -0.094158 0.444479
0.221841 0.274469 0.090382
-0.069572 -0.208367 0.352378
0.038926 -0.033955 0.024102
-0.031251 -0.168077 -0.068752
0.280634 -0.346182 0.214962
-0.025455 -0.252720 -0.114978
0.178461 0.164712 -0.067669
-0.248811 0.195701 0.235769
0.021389 -0.680149 0.231838
-0.112766 0.568351 -0.233200
0.003134 -0.222956 -0.457001
0.196567 -0.445248 0.167626
0.087065 -0.538869 0.277482
-0.028350 0.051207 0.557970
0.374435 -0.138985 0.254690
-0.106574 0.744308 0.126199
-0.143127 0.591469 -0.310776
-0.013083 0.302204 -0.065565
-0.102240 0.561224 0.391718
-0.052458 0.441689 0.300894
0.006622 -0.678877 0.157562
-0.575399 -0.430326 0.383875
0.039566 0.545039 -0.263154
0.346825 0.494354 0.101611
-0.068036 0.147717 -0.576966
0.045571 -0.017588 0.057536
0.083611 -0.598020 0.236915
-0.120285 0.051112 0.312076
0.016093 -0.336640 -0.163610
0.005896 -0.665912 0.089553
-0.022078 -0.420784 0.014699
0.047867 -0.694429 0.162967
0.049556 0.066382 0.024842
0.043704 0.315531 0.232650
0.080297 0.370503 0.047673
0.043767 0.254667 0.071700
-0.004570 -0.119132 0.050988
0.063348 0.171245 0.052006
-0.112709 0.679792 0.514301
0.115725 -0.169664 0.124242
-0.624103 -0.444876 0.400186
-0.684023 -0.454281 0.430104
-0.010356 -0.443346 -0.007949
0.084424 -0.998171 0.046282
-0.051218 0.068729 0.115443
-0.016749 -0.182627 -0.239416
-0.051968 -0.183816 -0.654344
-0.543003 -0.605139 -0.162868
0.016648 -0.668581 0.093996
-0.444105 -0.522513 -0.439030
0.061269 -0.212740 0.102515
-0.056849 -0.145133 -0.101767
0.048337 0.025821 0.026951
-0.151045 0.621908 0.301831
-0.529768 -0.439032 0.356781
-0.008796 -0.067088 0.073921
-0.038737 -0.668442 0.020850
-0.099346 0.071821 -0.243757
-0.211604 -0.459340 0.350236
-0.012638 -0.614686 0.311588
-0.008934 -0.411099 -0.061377
-0.041673 -0.532508 -0.078823
-0.170644 -0.373498 -0.395880
-0.018551 -0.559523 -0.039978
0.126694 -0.160582 0.128001
0.226008 0.222175 -0.108872
0.041086 0.408577 0.340403
0.413206 0.569548 0.373830
0.285531 -0.393273 0.138634
0.075802 -0.652035 0.091047
-0.139104 0.586096 -0.294922
-0.069222 0.139812 -0.572400
-0.014244 -0.364350 -0.135306
-0.014810 0.816417 -0.186308
-0.079368 -0.286407 0.290699
0.206872 -0.468674 0.164147
0.480674 0.047915 0.183372
-0.065379 -0.182494 0.356841
-0.195072 -0.574858 -0.145215
-0.078708 -0.090537 0.312163
0.013212 -0.259295 0.043172
-0.030448 -0.010726 -0.413461
0.047606 -0.657302 0.173257
0.127767 0.163339 0.074590
0.127176 -0.508256 0.288379
0.149029 0.302244 -0.183615
0.367563 -0.383870 0.161039
0.499060 0.038137 0.192510
-0.087954 -0.021172 -0.202588
-0.443369 0.334264 0.342180
-0.263998 -0.564773 -0.194846
0.243842 -0.079509 0.173528
-0.020408 0.045606 0.127344
-0.095676 -0.477657 0.181589
0.109539 -0.224504 0.179905
-0.035522 -0.299496 0.185642
-0.000633 -0.223003 -0.405304
0.129383 -0.589524 0.139546
0.017418 -0.256245 0.061785
0.000270 -0.390730 0.078998
0.274114 -0.293325 0.222388
-0.066499 -0.532209 0.161615
-0.597654 -0.438053 0.384211
-0.197963 -0.568711 -0.104245
0.315615 0.414777 -0.143741
0.090129 -0.583244 0.236530
0.088810 -0.567581 0.230021
0.106509 -0.185200 0.223553
-0.015326 -0.654196 0.071673
0.560756 0.080902 0.159267
-0.050453 -0.266870 0.252006
-0.024042 0.374930 0.138813
0.055662 0.395544 -0.149170
0.018773 -0.772815 0.008954
-0.199747 -0.456864 0.324577
-0.287968 -0.431993 0.468248
-0.037484 -0.394540 0.153648
0.079832 -0.531931 0.092838
0.065087 -0.648641 0.213006
-0.184355 -0.484805 0.261194
-0.046450 -0.589830 0.528609
0.075859 -0.036063 -0.000864
0.122109 -0.468010 0.304928
0.023704 -0.352125 0.038657
0.221359 -0.365301 0.407985
-0.062336 -0.543026 0.109947
0.194838 -0.054125 0.342598
-0.042266 -0.112764 0.429537
0.038406 0.121435 0.027022
0.060866 0.444042 -0.035512
0.233888 0.290220 0.098341
0.008103 0.499009 0.420313
0.018523 0.222473 0.123954
-0.016121 -0.350330 -0.153838
0.347293 0.038633 0.514426
-0.013453 -0.603486 0.344858
0.000590 -0.056821 0.054551
-0.068869 -0.649639 -0.003649
-0.001939 0.273387 -0.055177
-0.062879 -0.299458 0.292492
0.038338 -0.881874 0.092570
0.108666 0.164423 0.162784
-0.020247 -0.492306 0.016462
0.250935 -0.344641 0.212614
0.330214 -0.398197 0.167471
0.016227 -0.352329 -0.124828
-0.130308 0.186639 -0.331783
0.036866 -0.662291 0.102106
0.092854 -0.556073 0.268475
0.037270 -0.652621 0.218526
-0.039769 -0.238657 -0.001268
0.010298 -0.052022 0.068319
-0.046116 -0.332797 0.194028
0.014317 -0.632356 0.009824
-0.056679 0.462346 0.304127
-0.026317 -0.284013 0.044601
0.335539 -0.018378 0.185112
-0.061125 -0.153484 0.392141
0.088438 -0.053483 -0.432841
0.292527 0.340804 -0.123973
-0.039542 -0.576417 0.082140
0.010728 -0.235589 -0.389740
-0.089267 -0.467688 -0.169195
0.168837 -0.520928 0.152566
-0.001247 -0.977262 0.015504
0.073442 -0.953799 0.074351
0.023791 0.444858 0.374937
0.016011 -0.356998 -0.117041
0.063598 -0.544688 0.082818
0.296563 -0.407092 0.165548
-0.281842 -0.442066 0.430267
0.046280 -0.695757 0.152738
0.027290 -0.125917 -0.030250
0.474095 -0.319593 0.219479
0.010149 -0.647058 0.200521
0.189153 -0.502873 0.167700
0.023489 -0.721574 0.181650
0.077936 0.321876 0.025657
0.064760 0.528945 -0.080574
-0.034919 -0.442208 0.041359
0.019456 0.191302 -0.012941
0.070198 -0.601506 0.209844
-0.031764 0.030662 -0.440008
0.009579 0.278427 0.162688
0.190818 -0.075996 0.342362
-0.297362 -0.433231 0.500594
0.130657 0.183396 -0.164925
0.043962 0.043839 0.086836
0.624404 -0.215509 0.281331
-0.032569 0.023481 0.539960
0.000555 -0.141875 -0.269786
0.070145 0.218896 0.032284
0.089956 -0.514676 0.281847
-0.405150 -0.464098 0.541814
-0.137763 -0.379569 -0.356687
0.067340 -0.536843 0.253581
-0.228898 -0.557554 -0.135868
-0.005107 -0.217838 -0.531945
0.039703 0.041837 0.076910
0.068677 0.246675 0.033531
-0.036411 -0.529700 -0.087177
0.572845 0.049165 0.222281
0.073600 -0.781448 0.044726
-0.174084 -0.563655 -0.099965
-0.354349 -0.403344 0.616026
-0.138728 -0.402296 -0.321165
0.139082 0.607631 0.154251
0.011762 -0.542152 0.084106
0.397253 -0.343826 0.192677
-0.077007 -0.480488 -0.198436
0.244076 -0.362702 0.211808
0.158993 -0.097181 0.278385
0.056191 0.466344 0.076378
-0.002525 0.071242 0.139326
0.033143 -0.065689 0.006497
-0.315426 0.263573 0.288558
0.009313 -0.495404 0.003356
0.019205 -0.231981 0.014405
-0.149882 -0.471969 0.233108
0.185079 0.222189 0.071786
0.006360 -0.798339 0.013926
0.008182 0.630132 0.474705
-0.072005 -0.100214 -0.125877
-0.318833 -0.537583 -0.306148
0.306156 0.402959 0.305609
-0.273713 0.223123 0.263354
-0.059875 -0.596889 0.513263
0.205209 0.743983 0.241376
0.333802 -0.213053 0.233191
0.039594 -0.080837 -0.042014
0.038899 -0.732722 0.095715
-0.005932 -0.208679 -0.531037
0.013229 -0.666002 0.264296
-0.038497 0.023547 0.585487
-0.041291 0.416453 0.153183
0.242871 -0.415689 0.206413
0.099872 0.317735 0.053738
-0.079730 -0.299606 0.282153
-0.009894 -0.542238 -0.051353
0.114305 -0.603739 0.108690
-0.009089 -0.632527 0.352184
-0.413146 -0.430582 0.325199
0.063023 0.057794 0.097214
0.058224 -0.581621 0.062858
-0.056019 -0.482895 -0.174156
0.244781 -0.031444 0.404789
0.187340 -0.124036 0.159496
-0.543306 -0.606579 -0.171845
-0.058626 -0.619115 0.006295
0.309733 0.387541 0.153473
-0.028922 -0.531832 0.092729
-0.438186 0.330563 0.335367
-0.272181 -0.559323 -0.249574
0.156897 -0.528027 0.178115
-0.063209 -0.079832 0.393300
0.199340 0.172559 -0.085851
0.020249 -0.232211 0.044139
-0.036051 -0.480609 -0.100380
-0.064509 -0.307838 0.293595
0.046409 0.029749 0.047890
-0.012662 -0.227002 -0.447813
0.268025 -0.359204 0.198080
-0.046564 -0.610151 0.465418
0.050386 -0.849750 0.003786
-0.018527 0.343193 0.223222
0.069444 -0.632050 0.207691
0.547906 0.040322 0.212270
0.143986 -0.440687 0.328675
0.022099 -0.473105 -0.007444
0.227697 -0.094343 0.149680
-0.025402 -0.649345 0.043481
0.040480 -0.086223 -0.029915
0.372182 0.484190 0.224623
-0.005784 -0.113461 0.039866
0.043655 0.059417 0.087781
0.259390 -0.365916 0.223476
0.023183 -0.382477 -0.115630
0.203121 0.202502 -0.085066
0.122569 -0.183627 0.131423
0.325209 -0.213063 0.226151
-0.349416 -0.447285 0.505465
-0.209157 0.173726 0.200949
0.206514 -0.057471 0.367909
-0.011707 0.050940 0.108398
0.302572 -0.248555 0.222927
0.010072 -0.679916 0.235529
-0.036634 0.015342 -0.425036
-0.029424 -0.190265 -0.053680
0.044133 0.260163 0.193923
0.091222 0.029236 -0.128723
0.156417 0.082584 -0.461728
0.056011 -0.879994 0.003043
-0.033043 -0.188449 -0.639968
0.040611 0.262419 0.075284
-0.067514 -0.317229 0.293993
-0.356619 -0.420147 0.346777
-0.009505 -0.876404 0.059043
0.322497 -0.381438 0.144922
0.070845 -0.636612 0.126603
0.098851 -0.586728 0.101446
0.085762 -0.551956 0.060326
-0.155832 -0.373599 -0.405006
0.037568 -0.053937 0.006377
-0.072722 -0.093132 -0.136974
0.037018 -0.271257 0.070894
0.017531 -0.552526 0.083605
0.127235 0.091045 -0.143883
-0.126296 0.182531 -0.344509
-0.054391 -0.280274 -0.103801
-0.044093 -0.225760 0.249735
-0.057122 -0.175029 0.293949
-0.019870 -0.174316 -0.248000
-0.101579 0.018377 -0.225914
-0.110265 -0.443005 -0.288783
0.347463 -0.185644 0.237007
0.009906 -0.502598 0.008042
0.027008 -0.003554 0.022468
0.543215 0.044065 0.203007
0.079424 0.616829 -0.491949
0.239023 -0.444311 0.138219
-0.090393 -0.321716 0.283186
0.013093 0.241359 -0.030322
-0.278641 -0.440691 0.479412
0.060766 -0.079189 -0.065647
0.009542 -0.487885 -0.000946
0.036024 -0.182698 -0.382437
-0.395970 -0.458461 0.538241
0.044130 -0.123889 -0.036608
0.164723 -0.127587 0.131039
0.052534 0.374564 -0.132355
0.024022 -0.215905 -0.350834
-0.055625 -0.031464 0.462267
-0.193543 0.677339 0.219713
0.042086 0.160696 0.075764
0.029349 -0.403291 -0.065866
-0.004531 -0.324568 -0.170243
-0.012650 -0.409148 0.142655
-0.012527 -0.712461 0.032303
-0.514344 -0.596006 -0.170312
-0.009270 0.549992 0.477104
-0.031632 -0.356816 0.010770
0.024643 -0.606414 0.087223
0.121577 0.090926 -0.134459
-0.006177 -0.158354 -0.265876
0.005813 -0.351379 0.053141
0.018121 -0.213427 0.050105
0.034653 -0.580162 0.080276
0.001906 0.303972 0.195129
-0.005730 -0.663690 -0.006324
-0.131941 -0.510366 0.220236
-0.086610 0.054284 -0.238869
0.114549 0.086303 -0.130661
-0.014564 -0.457400 0.067271
-0.257629 -0.549656 -0.185271
-0.298386 0.252422 0.273955
0.147467 -0.463070 0.322256
-0.148407 -0.579872 -0.065250
0.096950 0.018821 -0.124842
-0.376569 -0.542454 -0.361285
-0.037038 0.393928 0.252528
0.006178 0.582604 0.113516
-0.076401 0.092618 0.132763
0.086306 0.630994 -0.508184
0.107235 0.014582 -0.029839
0.014861 0.309586 0.107675
0.129072 0.080886 -0.040941
0.048645 -0.280569 0.124639
0.029677 -0.704837 0.094078
0.035628 0.079757 0.021837
-0.222839 -0.587060 -0.151664
0.110705 -0.198299 0.093512
-0.094917 -0.502793 0.206751
-0.003017 -0.152700 -0.247857
-0.078576 -0.525477 0.174871
-0.050084 -0.586048 0.489086
0.441057 0.729937 0.343695
-0.041947 0.034615 -0.457656
0.544654 0.692234 0.361904
0.034177 -0.967968 -0.003448
0.148345 0.217459 -0.182928
0.055028 -0.075969 0.012142
0.058524 -0.652615 0.187057
-0.048882 -0.481614 -0.166927
0.205904 -0.430047 0.134600
-0.300161 -0.431231 0.508864
0.089428 0.429179 0.082079
-0.057466 -0.601385 0.472400
0.031939 -0.963341 0.091812
0.083947 -0.021803 -0.103343
0.125675 -0.474787 0.309206
-0.097953 0.546497 -0.207537
0.024990 0.172358 -0.011186
0.038132 0.168649 0.079212
-0.400967 0.313046 0.328584
-0.030018 -0.331652 0.158750
-0.021668 -0.065391 -0.364978
-0.021432 0.059181 0.110497
-0.126102 0.113676 0.160690
-0.261865 -0.550908 -0.177471
-0.075358 -0.002864 -0.193433
0.058421 -0.050517 -0.083258
0.083781 -0.913375 0.039758
-0.065935 -0.419344 0.242793
0.119334 -0.164625 0.116441
-0.007132 -0.672060 -0.005064
0.011880 -0.975332 0.085007
0.006732 -0.703129 0.194957
0.028529 0.599199 0.456630
0.364004 0.015481 0.181691
0.464714 -0.320649 0.223604
-0.179512 -0.492858 0.268657
-0.133788 0.188010 -0.344028
0.050857 -0.057893 -0.006410
0.219988 -0.074531 0.162768
0.068626 0.607300 -0.501784
-0.008201 -0.124460 -0.273110
0.002200 -0.455397 0.069750
-0.050197 0.430101 0.172272
0.380547 0.004027 0.178012
-0.067043 -0.618354 0.001751
0.013999 -0.390710 0.015587
0.080488 -0.548241 0.230791
-0.022831 -0.440376 0.123002
0.372548 0.524981 0.102835
-0.125741 0.181984 -0.325089
-0.052991 -0.566619 0.663364
0.087239 0.478302 0.390310
-0.419198 -0.582132 -0.174396
-0.028166 -0.005644 -0.399071
-0.067816 -0.224440 0.272936
0.031042 -0.250518 0.052398
-0.163882 -0.472420 0.277913
0.006723 -0.618045 0.336563
-0.154084 0.140346 0.177197
-0.010314 -0.885504 0.053881
-0.057597 -0.519484 -0.094927
-0.395983 -0.430246 0.320442
-0.694918 -0.456216 0.431005
-0.200312 0.175168 0.201014
-0.137213 -0.490706 0.243904
0.018865 0.233305 -0.025092
-0.115167 -0.618676 -0.072986
-0.171643 -0.363610 -0.394221
0.031428 -0.774197 0.116687
-0.005872 -0.213910 -0.501712
0.041513 -0.131917 -0.032264
-0.030189 -0.257478 0.025894
0.028927 -0.144392 0.006499
-0.030852 -0.294116 0.003904
0.156912 0.460832 -0.198341
0.126724 -0.171033 0.242894
-0.021425 0.530661 0.115994
0.064174 -0.903312 0.082870
0.298704 0.395009 0.299428
-0.028795 -0.350368 0.142598
0.014613 -0.649798 0.291088
-0.006384 -0.404217 0.137929
-0.186543 -0.462728 0.307871
0.026433 -0.429204 0.054433
-0.260796 -0.442902 0.262488
0.139242 0.053826 -0.034012
0.521747 -0.273908 0.241939
0.037743 -0.809185 0.093491
-0.026014 -0.306563 0.004673
-0.014845 -0.464367 0.004382
-0.055360 -0.645858 -0.034911
-0.257490 -0.547522 -0.195610
0.219035 -0.034659 0.369657
0.116558 0.034460 -0.038210
0.038062 0.304336 0.238234
-0.078475 -0.195247 0.276020
0.074583 -0.563244 0.223469
0.080506 0.023091 -0.113532
-0.040782 0.386551 0.255829
0.054478 -0.142516 -0.401224
0.080640 0.334310 0.041648
0.246488 -0.345008 0.432119
-0.074145 -0.629365 -0.053013
0.067957 0.293355 -0.034624
0.322046 0.610381 0.256421
0.077492 -0.980700 0.068295
-0.079174 -0.486356 -0.163221
-0.021109 0.339847 0.209312
0.033956 -0.235214 0.078163
0.029971 -0.180213 0.006042
-0.027862 -0.383249 -0.010681
-0.057689 -0.003635 0.510466
0.062780 -0.763038 0.073695
0.115337 0.006463 -0.452108
-0.463654 -0.472219 0.566540
-0.003347 -0.627705 0.356987
-0.028987 -0.591630 0.063625
-0.117969 0.178241 -0.323159
0.087854 -0.571957 0.260107
-0.176050 0.659926 0.342308
-0.043510 -0.648748 0.023493
-0.104119 -0.518306 0.164873
0.134554 -0.179452 0.133594
-0.171544 -0.466606 0.281023
0.066013 0.301593 0.284368
-0.217617 -0.460118 0.323415
-0.349136 -0.532811 -0.335936
-0.027939 -0.200713 -0.046252
-0.035403 0.405183 0.269521
0.049813 0.115057 0.015594
-0.279773 -0.568121 -0.160320
-0.016313 -0.710779 0.057051
-0.029802 -0.517006 -0.098719
-0.008703 -0.308611 -0.204795
0.263450 -0.053119 0.157976
0.030622 0.094427 0.045424
0.028113 0.516127 0.093296
0.039756 -0.691781 0.015116
-0.008490 -0.226388 -0.404386
0.108757 -0.162770 0.222126
0.036800 0.226418 0.245177
0.011179 -0.360410 0.050588
0.022013 -0.116190 0.012318
-0.065041 -0.542754 0.145265
0.277197 -0.032501 0.174816
0.085186 0.388853 0.329153
0.070511 0.607719 -0.491989
0.299855 0.019194 0.475993
0.000645 -0.788236 0.018003
-0.045243 -0.125298 0.418625
0.068344 0.329367 -0.079673
0.042918 -0.561624 0.028780
-0.022553 -0.374278 0.062245
0.050883 0.010876 0.034845
0.078995 0.342702 0.043283
0.237890 -0.346450 0.427126
-0.051380 -0.180194 0.367178
-0.090698 0.082532 -0.255550
-0.014957 -0.491689 0.009373
-0.021810 -0.466736 0.016391
0.117614 -0.197591 0.181770
0.059428 0.115111 0.026563
0.387419 -0.111282 0.263394
0.015110 -0.372668 0.083625
-0.121166 0.661093 -0.225032
0.071986 0.416399 -0.022872
0.061381 0.124259 0.113292
-0.307955 -0.562605 -0.272570
-0.019297 -0.424348 0.070562
-0.131113 -0.498946 0.188233
0.208419 -0.456191 0.164426
-0.003627 -0.770183 0.086188
-0.003899 -0.161430 -0.237615
0.376549 0.602982 -0.183815
0.000636 -0.867260 0.014402
0.047046 -0.044793 0.013440
-0.273211 -0.436305 0.289198
-0.143616 -0.385869 -0.343822
-0.344806 -0.564855 -0.182194
-0.030151 -0.181623 -0.050430
-0.067101 -0.323752 0.286412
0.038746 0.034948 0.071396
0.018442 -0.299252 0.015865
-0.211618 -0.585987 -0.115753
-0.064037 -0.455714 0.213697
-0.327809 -0.425868 0.314043
0.021252 -0.560454 0.083528
0.171037 0.200497 0.073169
0.058042 -0.588297 0.052756
0.059564 0.052555 0.074144
0.066893 -0.616948 0.242591
0.069722 -0.045555 0.004931
-0.042229 -0.411929 0.121532
-0.378927 -0.526638 -0.372927
0.047301 -0.598848 0.245450
-0.032873 0.384532 0.259576
0.327525 -0.025512 0.182123
-0.068920 -0.491236 -0.107805
0.337183 0.481351 0.105867
0.121152 -0.562474 0.165066
0.049265 -0.862062 0.002369
-0.011510 -0.388292 0.117396
0.021085 0.208084 0.114234
-0.029159 -0.224076 -0.008561
-0.006584 -0.223321 -0.424099
-0.149882 -0.472230 0.243637
0.042712 0.371312 0.302268
0.046041 -0.768650 0.109292
0.020030 -0.090501 0.013686
0.032656 0.384552 0.308888
0.018945 -0.582822 0.087120
-0.022869 -0.271829 0.047862
0.075942 0.212210 0.032162
0.053369 -0.671270 0.029479
-0.345730 -0.407164 0.615804
0.238418 -0.063107 0.169302
-0.156161 0.131559 0.161259
-0.418748 -0.536075 -0.417129
0.161471 -0.454918 0.325937
0.070106 0.198020 0.051802
-0.208385 -0.326952 -0.461060
0.241006 0.278418 0.093232
0.519992 0.722457 0.149744
-0.003117 -0.352567 -0.119888
0.405732 0.548114 0.281590
0.067937 0.088152 0.042870
-0.042049 -0.492665 -0.064752
0.203899 0.324253 0.077361
0.179246 -0.423243 0.355895
0.167613 -0.433660 0.316536
-0.011281 -0.855529 0.041736
-0.089453 0.044114 -0.245580
0.052601 -0.682820 0.094630
0.149372 0.510479 -0.192377
-0.067343 -0.178058 0.268390
-0.005367 -0.402093 -0.060638
-0.450027 -0.342344 0.498903
0.103855 -0.505377 0.292955
-0.117266 0.115323 0.158148
0.152241 0.072960 -0.462911
0.058330 0.528511 -0.284024
0.057000 0.303240 0.282702
0.065877 -0.886888 0.081473
0.139159 -0.139832 0.268387
-0.019751 -0.458704 0.012413
0.188849 -0.454757 0.164216
0.057291 -0.650005 0.045061
-0.011534 -0.694469 0.073447
0.200726 0.738868 0.235955
0.039116 -0.087473 -0.047898
0.022555 -0.653484 0.199405
0.072768 -0.766137 0.049425
-0.124341 -0.618427 -0.074558
0.108711 -0.592427 0.153546
-0.012556 -0.125211 -0.307394
0.533745 0.043443 0.199812
0.031712 0.107420 0.056774
0.207164 -0.084563 0.156790
-0.120503 0.142483 -0.306546
-0.289703 -0.431580 0.281894
0.145783 0.224188 -0.190003
-0.039572 -0.417377 0.114689
0.033394 0.189170 0.152668
-0.008235 -0.414367 0.137368
0.069824 -0.739825 0.049774
0.550118 -0.253855 0.254873
-0.034257 -0.184435 -0.651907
-0.046421 -0.373341 0.147399
0.207028 0.256517 0.083093
0.566786 0.048000 0.212588
0.045972 -0.741954 0.137805
0.057887 -0.159838 -0.397512
0.089209 0.042183 -0.118520
0.024677 0.055268 0.039113
-0.010339 0.139284 0.185406
0.043932 -0.184010 -0.369493
0.426177 0.577397 0.302109
0.160234 -0.481787 0.114143
0.063173 0.429849 -0.026892
0.320033 0.433037 0.309081
-0.006622 -0.608396 0.381518
-0.049695 -0.500251 0.135702
-0.017347 -0.224018 0.048212
0.183028 -0.397582 0.347859
-0.020444 -0.240179 0.046407
-0.447140 -0.438706 0.316627
0.196567 -0.443855 0.131808
0.296274 0.350253 0.129645
0.471090 0.647354 0.124867
0.017696 -0.444394 0.003720
-0.032341 0.055110 0.110784
-0.127962 0.915488 0.114334
0.002654 0.543157 0.113640
-0.000316 -0.612568 0.013045
-0.006902 -0.180313 -0.211567
-0.195311 -0.596823 -0.125636
-0.208405 -0.476659 0.304790
-0.003993 -0.890044 0.070040
0.069205 0.149277 0.042417
-0.137467 0.936592 0.108387
-0.039491 -0.272615 0.004461
0.256438 0.313517 0.101881
-0.009233 -0.971180 0.057736
0.048032 0.055147 0.096150
-0.217776 -0.579862 -0.116948
0.022338 -0.548230 0.013899
-0.086463 -0.410632 0.245915
0.138263 -0.171605 0.107318
-0.029996 -0.193755 -0.183752
0.129721 -0.465649 0.282617
-0.132043 -0.594635 -0.100244
0.060905 0.427345 -0.195163
-0.280618 0.714094 0.254494
0.019526 0.472609 0.407121
-0.069824 -0.455612 -0.154948
0.032240 -0.637291 0.221906
-0.074252 0.960585 -0.239066
0.026754 -0.148873 -0.023648
-0.059711 0.620084 0.115900
0.163649 -0.494502 0.147770
0.158912 0.131265 -0.053766
0.016097 -0.293572 -0.266867
0.000361 0.115856 0.152820
0.216020 -0.422674 0.109902
0.033553 0.245486 0.073917
-0.165150 0.640568 0.318668
0.181802 -0.068568 0.322336
0.073247 -0.987548 0.074642
-0.045041 -0.304238 0.223185
0.061908 -0.945899 0.004398
-0.032912 -0.442097 0.031742
0.326473 -0.193898 0.230568
0.133329 0.187645 0.069385
0.107702 0.510349 0.123212
-0.345216 0.741047 0.281390
-0.096481 -0.471302 -0.196546
-0.000481 -0.721358 0.123897
-0.046686 -0.345198 0.180680
0.277661 0.331019 -0.128818
0.111145 -0.175607 0.102198
-0.397014 0.759622 0.284242
0.207594 -0.451455 0.200893
-0.240452 -0.448941 0.372080
0.099278 0.003370 -0.025272
0.065021 0.421903 -0.031736
0.102904 0.312127 0.060701
-0.186842 -0.344779 -0.453977
0.177203 -0.482759 0.096683
0.129675 0.065251 -0.024738
0.083148 0.452074 0.376652
0.161882 -0.487314 0.083054
0.013843 -0.960937 0.002480
-0.044885 0.065835 -0.486348
0.068131 0.152346 0.032973
0.110715 -0.193406 0.220912
-0.091844 0.691345 0.123366
-0.049777 -0.583224 0.510291
0.057855 -0.625153 0.241453
0.541930 -0.253859 0.258548
0.097763 0.461634 0.105749
-0.131098 0.130590 0.158907
-0.115088 0.599693 -0.211024
-0.121340 -0.477635 0.200800
-0.038700 -0.314875 0.217283
0.054167 0.047929 0.069084
0.239918 -0.443265 0.118211
-0.078917 -0.070127 0.387996
-0.028669 0.041666 0.651810
-0.039820 -0.115598 0.421127
-0.119394 0.066216 0.311977
0.060550 -0.999207 0.003479
0.231543 -0.445905 0.112765
0.054214 0.431158 -0.199012
0.231977 0.229942 -0.094641
0.264937 -0.338972 0.201345
-0.002167 -0.729056 0.127951
0.367196 -0.376342 0.153989
-0.030311 0.393413 0.258802
0.267692 -0.308989 0.224970
-0.089740 0.529896 -0.202742
0.455665 0.611202 0.319537
-0.076353 0.488345 0.211782
0.001921 -0.076662 0.036066
0.098234 -0.200308 0.169249
0.325673 0.383033 0.371799
-0.035155 -0.512497 -0.032016
0.192057 -0.474784 0.157765
0.463113 0.447670 0.462859
0.064534 0.083784 0.033699
0.011936 -0.664325 0.174118
-0.089199 -0.400508 0.244665
-0.121446 -0.411977 -0.339165
0.074110 -0.612193 0.135241
0.030326 -0.823818 0.093770
0.010838 -0.671821 0.162840
0.020336 -0.403251 -0.102622
-0.091404 0.096714 0.127883
-0.029135 -0.594047 0.054941
-0.043596 -0.223931 -0.153957
0.042087 -0.085350 0.038214
-0.005333 -0.974045 0.067187
0.029723 0.303302 0.223722
0.026623 0.060515 0.032557
0.047935 -0.583720 0.221498
0.001307 0.149925 0.203404
-0.059908 -0.501515 0.130302
0.021478 -0.729207 0.172015
0.004864 -0.646283 0.024538
0.028825 0.086282 0.048098
0.051781 -0.283907 0.132359
0.187897 0.149054 -0.074616
0.012642 -0.626461 0.319116
0.117760 0.346741 0.079134
0.026712 -0.672665 0.237841
-0.040204 -0.656571 0.027022
0.029495 0.084867 0.039203
-0.013978 0.338994 0.202482
0.284994 -0.333245 0.218316
-0.021618 -0.259557 -0.118487
0.350749 -0.006729 0.170433
0.062100 0.380868 -0.145507
0.203431 -0.439384 0.134472
-0.316285 -0.409936 0.552164
0.293841 -0.418642 0.157438
0.022116 -0.424015 -0.023983
0.088058 0.165924 0.154853
0.238982 -0.356533 0.403605
-0.067485 -0.530183 0.113681
0.027406 -0.400808 -0.057500
0.017328 -0.009156 0.029046
-0.066875 -0.537509 0.152721
0.216681 0.774983 0.267452
0.015112 -0.621779 0.286928
0.080879 0.362141 0.317167
0.219218 0.475644 0.168492
-0.072226 -0.074201 -0.135483
0.046480 -0.066012 -0.062600
-0.005852 -0.833729 0.025800
0.052721 -0.653384 0.224764
-0.008653 -0.999573 0.028166
-0.221232 -0.456456 0.332297
0.003902 -0.230851 -0.382455
0.071600 -0.860323 0.073967
-0.064151 -0.651873 -0.026168
-0.076854 -0.080263 -0.145018
0.069201 0.074253 0.095872
0.223729 -0.398770 0.205739
0.263070 -0.017674 0.416698
-0.149339 -0.365789 -0.395708
0.044886 -0.031868 0.030236
-0.346365 -0.426365 0.312775
-0.518640 -0.602124 -0.165946
-0.019631 -0.387681 0.114104
0.018788 0.707400 -0.363617
0.208340 0.473256 0.162425
0.023591 -0.907640 -0.001348
0.156158 -0.544444 0.162923
-0.345616 0.273036 0.299557
-0.051100 0.089392 -0.522830
-0.061360 -0.439820 0.216785
0.095323 0.652112 -0.531053
-0.147430 -0.601578 -0.064181
0.139069 -0.534141 0.176821
0.024318 0.286298 0.099678
-0.297140 -0.561427 -0.279643
-0.098563 -0.028842 0.305408
-0.046565 -0.215443 -0.016793
-0.141893 -0.611453 -0.078132
0.182259 -0.093782 0.291884
-0.021563 -0.284393 -0.106134
0.071544 0.306198 0.028419
-0.001236 -0.153760 0.054427
0.097265 -0.490275 0.091427
-0.085873 -0.452000 0.220542
-0.080484 -0.340609 0.286037
-0.276693 -0.542253 -0.246583
0.142537 0.372426 0.092440
0.227037 0.282384 0.096034
-0.035184 -0.449931 0.045330
0.024196 -0.227147 0.037809
0.076377 -0.293584 0.106460
0.204380 -0.449142 0.133342
0.058711 0.262795 -0.017042
0.597667 -0.231091 0.280572
0.063334 -0.134629 -0.409594
-0.663331 -0.449735 0.423148
-0.206482 -0.457380 0.235854
0.044187 0.296516 0.218914
-0.225623 -0.473570 0.357582
-0.029226 0.358570 -0.085129
0.041054 0.131378 0.004316
0.049343 -0.715376 0.018957
0.079703 -0.851494 0.041182
0.012475 -0.404846 0.074625
0.392547 0.423189 0.420484
-0.016321 -0.100016 -0.331845
-0.099472 -0.610357 -0.075134
-0.031381 -0.334219 0.204810
-0.041560 -0.401524 0.141112
0.010239 -0.759532 0.012257
0.024343 -0.392671 -0.065543
-0.078453 -0.413049 0.249199
-0.008412 -0.053064 -0.357275
-0.354820 -0.570972 -0.189063
0.241422 -0.060392 0.160882
0.028076 -0.278217 0.040266
-0.011647 -0.858743 0.050080
0.111238 0.333653 0.061766
0.042517 0.172503 0.150712
0.129381 -0.140932 0.235010
0.046658 -0.063674 -0.050249
0.049511 -0.582122 0.073109
0.317359 0.403777 0.159387
-0.157496 -0.502631 0.234491
0.140353 -0.148172 0.131702
-0.041443 -0.044839 0.484937
0.209362 0.213461 -0.095782
0.021858 -0.672717 0.154246
0.051560 -0.004903 0.053842
-0.036279 0.034141 0.590580
0.084963 0.208836 0.039831
-0.064045 -0.032537 0.464038
-0.335731 -0.544510 -0.304826
0.287399 -0.312621 0.211858
0.045298 0.538206 -0.263516
-0.158601 0.660716 0.208844
-0.049888 -0.496402 0.155886
-0.038532 -0.270255 0.210199
-0.079756 -0.595023 -0.054801
0.072328 -0.283567 0.139688
0.156953 -0.163345 0.140962
0.090293 -0.270288 0.132012
0.084771 -0.593459 0.229039
-0.088851 -0.331931 0.284409
-0.286712 -0.562335 -0.265253
0.217480 0.206289 -0.084270
0.145609 -0.508292 0.181179
0.043722 -0.170701 -0.376733
-0.163017 -0.580324 -0.075468
-0.039671 -0.330178 0.204493
-0.008906 0.291339 -0.069921
-0.252034 -0.566634 -0.215800
-0.018176 -0.617980 0.070947
-0.139081 0.162617 0.342928
0.020749 0.211430 -0.013959
-0.142361 0.237892 -0.395678
0.086149 -0.203319 0.116257
-0.024451 -0.689902 0.030413
0.119301 -0.185515 0.228244
0.235539 -0.423997 0.205086
0.040517 -0.260846 0.083747
0.276532 -0.353589 0.207808
-0.009027 -0.639913 0.326041
-0.023545 -0.294582 0.050493
-0.029465 0.036220 0.612820
0.175468 0.222922 0.072808
0.149310 0.627099 0.162364
0.023328 0.017951 0.049185
0.040692 -0.545098 0.072700
0.060151 0.117143 0.051299
-0.102933 0.091178 0.137170
-0.019202 -0.244269 -0.155135
0.069842 0.395937 -0.012558
0.004357 -0.473289 0.097912
-0.108767 -0.029141 0.308739
0.066707 0.249136 0.041684
0.041522 -0.575372 0.077793
-0.025789 -0.561603 -0.033850
-0.010738 -0.582731 -0.006226
0.358052 -0.143023 0.248852
-0.059903 -0.511273 0.117128
0.045644 -0.588697 0.242664
-0.189624 -0.489717 0.222732
-0.028441 -0.542664 0.003484
0.261038 0.861639 0.363825
-0.196102 -0.458435 0.240660
0.048447 -0.705539 0.150975
0.271085 -0.314718 0.231339
-0.055287 -0.575995 0.573366
-0.055185 0.614034 0.120134
-0.058846 -0.461088 -0.138436
-0.006097 -0.526865 -0.020024
0.161495 0.138660 -0.061101
-0.029524 -0.379395 0.055227
0.312746 0.441199 -0.145032
-0.023825 -0.217539 -0.036982
-0.447845 -0.430493 0.333738
-0.167304 -0.365977 -0.386921
0.004740 -0.250877 -0.378801
-0.348073 -0.431105 0.323837
-0.010862 -0.737620 0.067261
-0.123889 0.714395 -0.238720
-0.326001 -0.584066 -0.173743
-0.030573 -0.521815 0.111860
-0.010872 -0.057959 0.078409
-0.013274 -0.048175 0.062022
0.055387 -0.582994 0.215694
0.070022 0.546308 -0.336982
-0.019392 -0.330856 0.164059
-0.013888 -0.715038 0.066091
0.345471 -0.161194 0.243888
-0.248797 -0.547613 -0.199257
-0.039996 -0.272163 -0.084556
-0.023397 -0.683090 0.010758
0.047499 -0.630436 0.106839
0.037814 0.157051 0.135404
-0.066399 -0.165026 0.375639
0.353291 0.050884 0.529829
0.124977 0.101943 -0.158556
0.173332 -0.522969 0.162068
-0.032497 0.365291 0.235596
0.065915 -0.569855 0.055128
-0.141131 -0.575430 -0.066901
-0.070061 0.071083 0.135839
-0.058758 -0.193345 -0.040997
0.025912 -0.395851 0.064279
-0.290255 -0.558667 -0.273949
-0.153982 -0.370212 -0.370717
0.131351 -0.454943 0.293931
-0.315774 -0.583178 -0.172344
-0.171060 0.635923 -0.472916
-0.029878 -0.220267 -0.044654
0.059622 0.252389 -0.013410
0.068660 0.296184 -0.053901
-0.021811 0.538934 0.118354
-0.064163 -0.585584 0.538544
0.058491 -0.692787 0.085239
0.070858 -0.805085 0.071201
0.407781 0.541547 0.275679
-0.149115 -0.474668 0.208788
0.055404 0.595572 -0.109183
0.084494 -0.215644 0.183049
-0.025519 -0.364824 -0.032286
-0.075698 0.504723 0.336123
0.020155 0.023664 0.034398
0.027090 -0.271817 0.073096
-0.362215 -0.445347 0.298756
-0.002673 -0.643977 0.237340
0.059629 -0.223075 0.103604
0.041685 0.230565 0.183102
0.198391 0.282452 0.268951
-0.034109 -0.421623 0.031829
0.215019 0.266088 0.094306
0.188869 -0.440100 0.128600
0.079093 -0.586867 0.255856
-0.005498 -0.784003 0.026035
-0.216542 -0.318798 -0.496801
0.292996 -0.040490 0.165111
-0.008106 -0.186048 -0.203061
0.130734 0.077474 -0.031301
-0.089078 0.492886 0.219103
-0.062373 -0.139453 0.304576
-0.049380 -0.563370 0.094693
-0.022905 -0.251100 0.020841
-0.019443 -0.193747 0.032740
-0.010874 -0.535481 0.021151
0.046848 -0.952289 -0.001875
0.337288 0.390766 0.378226
0.036643 -0.101944 0.047873
-0.008596 -0.888628 0.062300
0.007271 0.196265 0.224721
-0.276142 0.220039 0.255511
0.138613 -0.478467 0.069568
0.134604 -0.173861 0.224056
0.069396 -0.748760 0.056690
0.002674 0.333526 0.108325
0.391983 0.017417 0.172529
-0.047932 -0.598043 0.517875
0.069262 -0.613884 0.206643
-0.073003 -0.114698 0.332978
-0.041389 -0.613085 0.421171
0.234420 0.323067 0.284890
-0.031354 0.374718 0.236256
0.026478 -0.381962 0.044673
0.047717 0.336659 0.058556
0.037590 0.193044 0.113020
0.108986 0.145312 0.067808
0.122032 -0.547322 0.167618
-0.128392 -0.390042 -0.355431
0.167390 0.669704 0.186116
0.038892 0.376977 0.291672
-0.263697 -0.442896 0.418118
-0.003168 0.326471 0.104219
-0.108657 -0.462512 -0.238626
0.415310 -0.355357 0.195216
0.132423 0.192149 0.183160
-0.069806 0.063806 0.128937
0.123506 0.142685 -0.154953
0.168631 0.258726 0.243884
-0.088175 -0.463123 -0.236892
0.056639 -0.134256 -0.403287
-0.064064 -0.491892 -0.164125
0.025132 -0.494981 0.072645
-0.001385 -0.929599 0.072988
0.059728 -0.579709 0.049382
0.234405 -0.448990 0.123759
-0.401313 -0.367302 0.432109
0.108479 -0.490992 0.063606
-0.072886 -0.078773 0.402169
0.098670 -0.531915 0.054554
0.040076 -0.252274 0.087995
-0.435890 -0.352701 0.465388
0.081342 0.282709 0.051601
0.061295 -0.322968 0.104225
0.084865 0.295612 0.051747
0.246056 -0.084504 0.165797
0.154315 -0.135306 0.273176
-0.179380 -0.462669 0.287683
-0.009120 0.011917 0.093583
-0.079485 -0.385260 0.263188
-0.049240 -0.226975 -0.015657
0.001179 0.304339 0.179478
-0.064535 -0.577108 0.605580
0.013245 0.293939 0.101714
-0.080403 -0.170922 0.295227
0.374346 -0.124029 0.249473
0.021120 -0.727908 0.010925
-0.070971 -0.032100 -0.194503
0.144326 0.608350 -0.164908
0.041318 -0.079905 -0.051904
0.267745 -0.310036 0.216382
-0.132945 -0.396019 -0.322646
-0.014780 -0.444884 0.122914
0.068232 -0.102629 -0.414495
0.055137 -0.072586 -0.069396
0.083497 -0.228455 0.085666
0.031409 -0.541444 0.067464
-0.005861 -0.395644 0.137777
0.063005 -0.233809 0.102630
0.273789 -0.044063 0.161376
-0.137833 -0.570096 -0.096297
0.147394 -0.498004 0.177727
-0.027168 -0.252052 0.033771
-0.005286 -0.191966 0.006557
-0.000777 -0.850969 0.077083
-0.090800 -0.360134 0.260226
-0.297563 0.771907 0.476885
-0.036280 -0.282223 0.005404
0.201962 -0.393975 0.382831
0.149446 -0.155585 0.113477
0.188336 0.711729 0.212848
0.297053 0.427046 0.083607
-0.009985 -0.469574 -0.011678
-0.099868 0.126706 -0.287580
-0.087111 -0.467308 0.210026
-0.203005 0.979623 0.128525
0.089578 -0.576541 0.142933
-0.317119 -0.419335 0.561798
0.018860 -0.044832 0.055215
0.060535 0.448588 -0.215035
0.037741 -0.304659 0.113865
0.015150 -0.653974 0.283321
0.019648 -0.640775 0.293794
0.198961 0.550981 -0.226235
-0.135411 -0.583718 -0.105383
0.033784 -0.673786 0.098542
0.161440 0.094047 -0.047979
0.009087 0.269952 0.158842
0.190517 -0.494774 0.162481
-0.012981 -0.472484 0.101741
-0.151360 -0.472883 0.222105
0.022826 0.196784 0.217813
0.096379 -0.512267 0.053386
0.349444 0.398487 0.392324
0.244569 0.335957 0.288486
-0.483047 -0.602530 -0.174478
0.020644 0.025706 0.043906
0.081054 -0.548878 0.052363
-0.112694 -0.440555 -0.230490
0.248267 -0.411379 0.200573
-0.003917 0.109788 0.146193
0.129992 0.355406 0.076813
-0.005768 -0.362074 -0.004201
-0.216204 -0.477194 0.339941
-0.367002 -0.409215 0.356816
0.011178 -0.611400 0.010891
-0.120578 -0.586197 -0.092120
0.105793 -0.185709 0.124953
0.006123 -0.259928 0.048640
0.139971 -0.552747 0.167943
0.467798 0.049496 0.185979
0.042119 0.296390 0.228964
-0.072722 0.600273 0.165120
-0.214514 0.184336 0.219724
0.152411 0.363871 -0.202742
0.416636 0.080656 0.615266
0.254238 -0.025515 0.411291
-0.098264 0.564354 -0.201824
-0.093131 -0.443408 -0.266690
-0.121276 -0.420194 -0.274264
0.117566 -0.491274 0.105786
0.020082 -0.153730 -0.019796
-0.047782 -0.592741 0.448224
0.150071 -0.142115 0.123336
-0.080948 -0.144702 0.322659
0.220282 0.297229 0.283682
-0.461928 -0.591423 -0.186154
0.001763 -0.610600 0.330802
0.106778 -0.483725 0.068046
-0.086702 -0.397748 0.230052
0.090423 -0.558991 0.232336
-0.305868 -0.574749 -0.163923
-0.066743 -0.476921 0.202012
-0.011154 -0.326587 -0.223677
0.150991 -0.445089 0.300712
0.218359 -0.441438 0.202874
0.028769 -0.564953 0.082119
0.084638 0.437879 0.371131
-0.092045 0.030277 -0.238509
0.483583 0.048753 0.193131
0.059270 0.473320 -0.046757
-0.055279 -0.109422 -0.135012
0.366809 -0.151148 0.252337
0.207448 0.284865 0.272844
0.013834 -0.545970 0.017040
-0.019180 -0.698870 0.051336
-0.205826 -0.476756 0.335838
-0.034832 0.030195 -0.460261
0.030115 0.175223 0.084353
-0.033819 -0.202288 -0.174572
0.019173 -0.453227 0.012224
0.070555 0.078143 0.104200
0.068677 -0.243307 0.092855
-0.009227 0.150972 0.191775
0.268682 -0.012987 0.426935
-0.000667 -0.536934 0.021053
0.080920 -0.291641 0.116764
0.011336 0.472475 0.101102
0.041223 0.221624 0.178451
0.097722 0.207624 0.045839
0.199331 -0.048245 0.359784
-0.009594 -0.043857 0.086946
0.036275 -0.665849 0.161845
-0.030005 -0.622227 -0.000604
-0.247409 -0.582184 -0.167514
0.011402 -0.618596 0.294578
-0.386017 -0.377280 0.411737
0.397050 -0.087199 0.278542
0.067769 0.332952 0.297956
0.302230 0.392700 -0.133116
0.019777 -0.621755 0.012413
0.099893 -0.182712 0.192143
-0.157041 0.301165 -0.468870
0.030023 0.313254 0.232389
0.465980 -0.302942 0.213927
-0.033147 -0.481325 0.041189
0.078782 -0.532179 0.273887
-0.038878 -0.216106 -0.011829
0.617264 -0.213656 0.276938
-0.011285 -0.209167 -0.520098
0.059355 -0.749995 0.080038
-0.037876 -0.197057 -0.623782
-0.019766 -0.303527 -0.077413
0.040143 0.112191 0.043123
-0.091974 0.019986 -0.232112
-0.047997 0.430673 -0.135643
-0.061407 -0.210297 0.335472
0.027271 0.197140 0.226607
0.050798 -0.613668 0.056413
0.008485 -0.790069 0.012698
-0.047527 -0.342610 -0.038368
0.041379 0.235582 0.253180
0.028945 0.249645 0.189203
0.028705 -0.035789 0.020656
-0.355797 -0.413015 0.359527
-0.001155 -0.620954 0.361850
0.006782 0.324835 0.103125
-0.024674 -0.291077 -0.001530
-0.113047 0.133413 -0.307650
-0.026578 0.333643 -0.087913
0.101979 -0.229110 0.181961
-0.053398 -0.496498 -0.069948
0.152624 0.283232 0.067085
-0.019728 -0.663207 0.060288
0.126776 -0.192445 0.124297
0.109437 -0.532318 0.080569
-0.059692 0.066747 0.113523
0.192486 0.721527 0.221227
-0.017123 -0.298387 0.055358
0.038358 -0.681986 0.154650
0.100652 0.027903 -0.035519
0.006774 -0.710727 0.014293
-0.068345 -0.104479 0.335728
0.069871 0.207561 0.051633
0.036449 -0.653210 0.102366
0.109001 -0.548391 0.155897
-0.168081 0.153820 0.176325
0.063143 0.265725 -0.026625
-0.008224 -0.520437 -0.046313
-0.062124 -0.184371 -0.658814
0.107042 -0.574211 0.157076
0.025988 0.617406 -0.308976
0.079436 -0.520483 0.254549
0.011115 -0.070088 0.072043
-0.343738 -0.401968 0.608637
-0.275986 -0.451599 0.443286
-0.226279 -0.581400 -0.125972
0.125080 0.119116 -0.165861
-0.277663 -0.438198 0.438132
0.013264 -0.654244 0.197014
-0.018533 -0.221649 0.014919
0.135325 -0.531091 0.131924
0.018123 -0.143872 0.003724
-0.069352 0.630227 0.116766
-0.128223 0.127320 0.151512
0.058131 0.154210 0.131736
-0.014418 -0.343256 -0.159207
0.070239 -0.910664 0.078840
0.077860 0.014339 -0.111835
-0.071597 -0.615503 -0.056404
0.067781 -0.142210 -0.398637
-0.227687 -0.585522 -0.158767
0.096243 -0.036844 -0.443529
0.000024 -0.642944 0.010107
-0.207099 -0.316903 -0.474214
0.400458 0.540758 0.359787
0.614320 0.041701 0.236854
0.033668 -0.130612 0.046964
0.126671 -0.473710 0.073763
0.040930 -0.068209 0.047844
-0.070640 -0.043509 0.421141
0.070052 0.265957 0.034516
0.042201 -0.669176 0.103493
-0.227627 0.189019 0.217739
0.180004 -0.434207 0.104109
0.341338 -0.005346 0.168979
0.047169 -0.690318 0.093298
-0.214006 -0.313025 -0.478587
-0.098385 0.532206 0.243983
-0.087785 -0.510335 0.188544
0.158481 -0.435741 0.342701
0.233366 -0.436023 0.181964
-0.238948 0.723483 0.413687
0.690301 -0.168109 0.299862
-0.049007 -0.257929 0.257391
0.048260 0.273437 0.282306
-0.029117 -0.508035 -0.037889
0.409837 -0.043868 0.301067
-0.019425 -0.285554 -0.095349
0.077536 -0.193903 0.104717
0.257254 -0.048839 0.164149
0.261195 0.351203 0.289412
-0.086662 -0.306984 0.285141
-0.004960 0.327905 0.208290
0.056356 0.330809 -0.087343
-0.012724 -0.336476 0.008966
0.609315 -0.213739 0.280579
0.271877 -0.351381 0.200675
0.267335 -0.429783 0.151232
0.068292 -0.561002 0.265062
0.189140 -0.062244 0.345017
0.022837 -0.037142 0.057185
0.101111 -0.211152 0.113606
0.071899 0.265938 -0.024660
-0.049871 0.404388 -0.125109
0.085600 0.258954 0.038479
-0.168289 -0.573485 -0.124314
-0.074531 0.503339 0.345493
0.029442 -0.614391 0.084506
0.124978 -0.147168 0.229026
0.029107 0.199632 0.099602
0.027022 -0.157537 0.012209
-0.141687 -0.599502 -0.055344
0.138544 -0.442919 0.312149
-0.422270 0.318651 0.333272
0.231142 -0.097340 0.157268
-0.000304 -0.489654 0.000147
0.030189 -0.742078 0.155455
0.172104 -0.135463 0.153045
0.063537 -0.312119 0.089778
0.020859 -0.928887 -0.000836
-0.051355 -0.507536 0.123011
-0.039440 -0.536126 -0.015203
0.180706 0.510394 -0.213623
0.181895 -0.142732 0.148723
-0.008593 -0.578001 0.097170
-0.010351 0.120771 0.177246
0.099518 0.305317 0.051964
-0.078624 0.606746 0.169586
0.090638 0.045635 -0.126472
0.017511 -0.822697 0.006126
0.032836 0.240294 0.247447
0.292404 -0.304427 0.216721
0.013984 -0.216394 -0.356913
0.007501 -0.227846 -0.406015
0.096261 0.124863 0.054524
-0.034619 -0.197600 -0.205445
-0.042001 -0.301282 -0.048320
0.200107 0.731524 0.231275
0.031827 -0.664472 0.232783
-0.368912 0.749767 0.282883
0.021549 -0.377582 0.023714
0.173002 0.124086 -0.049665
-0.133194 -0.416474 -0.299915
0.335005 0.433105 0.181416
0.064465 -0.058011 -0.081284
0.011609 -0.675312 0.091349
-0.084117 -0.005707 -0.187199
0.000301 -0.710464 0.132848
-0.038825 -0.074831 0.450931
0.162410 -0.536297 0.162667
0.029385 -0.625537 0.081623
0.104263 -0.172213 0.222349
-0.059797 0.438758 0.179229
0.157558 0.206704 0.080731
-0.125702 -0.581013 -0.055300
0.029084 0.240253 0.262764
0.062855 0.544383 -0.322599
-0.038371 0.022546 -0.435117
-0.010100 -0.768874 0.032683
0.150807 0.313507 -0.184990
0.020271 -0.917244 -0.000699
0.147231 -0.455524 0.327584
0.058277 0.603887 -0.109574
-0.104893 -0.434833 -0.294701
-0.285617 -0.453748 0.444294
-0.138092 0.201160 -0.352126
0.068179 0.387060 -0.009923
0.028772 -0.122157 0.015439
-0.291180 -0.542058 -0.269471
-0.078748 -0.017118 -0.206088
0.006898 -0.448129 0.082812
0.176756 -0.460765 0.183941
0.362822 0.573789 -0.170528
0.068212 0.265260 -0.010888
-0.009597 -0.238608 -0.420705
0.089862 -0.223371 0.102722
-0.028521 -0.272270 0.222703
-0.153451 0.257121 -0.418491
0.080156 -0.225830 0.144838
-0.068895 -0.333651 0.285458
-0.031506 -0.532101 -0.010184
-0.202803 -0.457250 0.314933
-0.010996 -0.360361 -0.024812
-0.024850 -0.153217 -0.262166
-0.105578 0.081665 -0.269119
0.116994 -0.536953 0.133154
0.101277 -0.596654 0.099666
-0.018375 -0.527843 0.072597
0.212800 -0.450603 0.132350
-0.029946 -0.175639 -0.696387
-0.000695 0.340048 0.113204
0.067547 -0.686571 0.067780
0.247444 -0.081452 0.157665
-0.135486 -0.419407 -0.333259
-0.060687 0.451365 -0.154915
0.102271 -0.206895 0.162244
-0.509039 0.367527 0.391256
-0.006659 -0.127389 0.043623
0.303270 -0.383386 0.145761
0.014824 -0.909157 0.001851
-0.042596 -0.354935 -0.030685
0.053864 -0.664039 0.177671
-0.051844 -0.635038 0.014806
0.131460 -0.582104 0.124942
-0.003362 -0.213405 -0.522356
0.058156 -0.571751 0.221587
0.033545 -0.540886 0.075810
-0.059925 -0.412511 0.231706
0.282474 0.357141 0.322074
0.008678 0.461110 0.093431
-0.029125 -0.313892 -0.085257
-0.010576 -0.912330 0.050505
0.059122 0.107566 0.037571
-0.030923 0.033505 0.602019
0.019370 -0.426043 0.021875
-0.437400 -0.534028 -0.428639
-0.027711 -0.361585 0.133024
0.042726 -0.722378 0.013737
0.087920 -0.014619 -0.013105
0.099639 -0.191301 0.122196
0.099853 0.160318 0.163369
-0.003344 -0.373509 0.005574
-0.011603 -0.464280 0.104473
0.473147 0.042797 0.179694
0.000292 -0.245987 -0.316143
-0.049798 0.014761 0.529428
-0.327431 -0.536633 -0.318318
0.017981 -0.271819 -0.277107
-0.427435 -0.351222 0.466687
0.182101 0.160380 -0.060856
0.050114 0.565748 0.437662
0.013039 -0.881622 0.004359
-0.029822 -0.444784 0.107836
0.234807 -0.409429 0.178898
0.036007 0.165447 0.137777
0.106128 0.033918 -0.131821
-0.252240 -0.442157 0.262510
-0.049993 -0.200627 0.263314
-0.124038 -0.420065 -0.333565
0.088083 -0.239550 0.133546
-0.159505 0.310497 -0.471171
0.074624 -0.563111 0.070314
0.000345 0.081421 0.138736
0.139967 -0.468383 0.282449
0.040086 -0.294013 0.096490
0.088142 0.373059 0.054808
-0.207825 0.998950 0.132885
0.062448 0.541916 0.423843
-0.118930 -0.443233 -0.285173
-0.542049 -0.428678 0.356647
0.000263 -0.252513 -0.299147
-0.392437 -0.460991 0.529452
-0.045273 -0.572772 0.756685
-0.088225 -0.423476 0.212679
0.310330 0.593526 0.244552
-0.038182 0.058083 0.123698
-0.064311 -0.029018 0.438668
0.067110 -0.738392 0.036875
-0.039835 -0.364988 -0.021397
0.113406 -0.534043 0.152943
-0.011534 -0.972972 0.042571
-0.000783 -0.582466 0.094196
-0.288742 0.231831 0.267318
0.599902 -0.221994 0.274052
0.004539 -0.455999 0.024101
-0.037916 -0.263646 0.216666
0.006906 -0.854151 0.083797
0.049858 -0.606631 0.063932
0.061850 0.436628 -0.201349
0.256290 0.856116 0.356769
-0.118506 0.777270 0.126535
-0.344065 -0.428887 0.332880
0.069980 0.158088 0.046935
-0.048562 -0.104143 -0.103027
0.292307 0.349612 -0.122882
0.177030 -0.434392 0.342199
0.039863 0.027693 0.076188
-0.040221 0.050127 0.126267
-0.001370 -0.112183 -0.310715
0.061697 -0.573144 0.066049
0.343993 0.439791 0.193529
-0.019552 -0.461749 0.106802
0.072227 0.374280 0.325119
0.077394 -0.036837 -0.095702
0.217490 -0.358488 0.395625
0.036078 -0.622246 0.076647
0.049989 0.064393 0.101820
0.117906 -0.172541 0.200721
-0.084449 -0.477903 -0.202749
-0.111887 0.882770 0.123283
-0.031283 -0.193934 -0.215398
-0.087650 -0.314827 0.290160
0.102191 -0.233118 0.147041
-0.090701 0.073882 -0.264679
-0.044830 -0.237064 -0.034680
0.453105 0.034336 0.177667
0.481735 0.665797 0.131861
-0.060696 -0.552531 0.112083
0.269904 0.352670 0.311697
-0.096876 -0.500541 0.155057
-0.044429 -0.244208 0.262697
0.002914 -0.173015 -0.000431
0.100348 0.013570 -0.118833
-0.017083 0.033109 0.097115
0.033344 -0.680300 0.013759
0.049918 -0.042279 -0.008787
0.243734 -0.351818 0.409680
-0.020976 -0.254034 -0.137285
0.058088 0.232455 0.002645
-0.019666 -0.341046 0.012073
-0.075242 0.174784 -0.601760
0.169070 -0.117068 0.272434
0.050968 -0.667712 0.102934
-0.031056 -0.591922 0.426985
-0.063107 -0.449881 0.197172
0.096961 0.136432 0.046234
0.041506 -0.622060 0.193424
-0.256532 -0.251438 -0.564242
-0.010946 -0.613347 0.391922
-0.045440 -0.609939 0.433192
0.021646 -0.478415 0.074658
0.081219 0.313240 0.024350
0.344876 0.449517 0.193542
0.247352 0.273722 -0.115555
-0.011941 -0.429974 0.130291
0.059861 -0.254239 0.079397
0.054937 -0.593652 0.043732
-0.100251 -0.464035 -0.241345
0.151584 -0.476290 0.116982
-0.027853 -0.536038 -0.002865
0.040344 -0.354234 0.077877
-0.078980 0.070280 0.127344
0.292641 -0.259543 0.238869
-0.017911 -0.045341 0.070184
0.376031 0.511905 0.342472
0.058235 -0.929712 0.086854
0.019499 -0.568958 0.085307
-0.154859 -0.395127 -0.359593
-0.083416 -0.488706 0.153431
0.152963 0.504715 -0.198233
0.059089 -0.029406 -0.087200
-0.012300 -0.065825 0.066131
-0.005996 -0.209059 -0.543441
0.239872 -0.420836 0.148865
0.033550 0.345102 0.257370
0.056415 -0.708198 0.079017
-0.479939 0.352505 0.361550
0.074052 -0.614270 0.237532
0.099935 -0.516024 0.099870
-0.015349 -0.206355 0.015831
-0.007794 -0.236260 -0.453552
0.080917 -0.090856 -0.428124
