ply
format ascii 1.0
comment generated by PyPointCloud
element vertex 1697
property float x
property float y
property float z
end_header
-0.336982 -0.42118 0.150286
0.211421 0.345742 0.811996
-0.009016 -0.513874 0.040614
-0.301627 0.164244 0.099569
0.091026 -0.186323 -0.186834
0.032463 -0.050069 0.688029
0.07669 -0.211647 0.531437
-0.503553 0.134572 -0.058313
-0.026314 0.092986 0.618703
0.008343 -0.437915 0.175024
0.03789 -0.30326 0.15668
-0.801517 0.430199 0.018994
0.503259 0.244744 0.279497
0.129182 -0.103088 0.967459
-0.499014 -0.133969 -0.017972
0.003958 -0.487661 -0.000323
0.244381 -0.067249 0.363822
-0.043368 -0.487773 -0.012792
-0.559324 -0.426032 -0.149947
0.086021 -0.161332 -0.402392
0.127265 -0.127025 -0.151532
-0.041402 -0.293274 -0.156288
-0.003564 -0.239702 0.460557
-0.306999 -0.517682 -0.119028
0.022909 -0.214475 0.064246
0.147749 -0.116914 -0.141539
-0.040032 -0.264742 -0.230063
0.22518 0.319369 0.531136
-0.008927 -0.358376 0.052167
0.012457 -0.312099 0.29364
0.038582 -0.476843 -0.126427
0.400437 -0.193697 0.353792
0.037658 -0.301046 0.28899
-0.1454 -0.570551 -0.060989
0.20656 -0.27748 0.463523
0.505344 0.286778 0.309746
-0.467333 -0.409766 0.255717
-0.000798 -0.829837 0.062379
-0.152763 -0.565108 -0.056846
0.249941 0.206914 0.841568
-0.030613 -0.026671 -0.374693
-0.332951 -0.284478 -0.000293
-0.593694 0.473396 0.159795
-0.020541 -0.227652 0.490165
-0.17807 -0.438147 0.052519
-0.036974 0.104209 -0.449255
-0.203978 -0.58203 -0.045195
-0.152382 -0.449439 0.02242
0.295399 -0.146828 0.366517
0.083919 -0.367679 -0.232638
0.127292 -0.132718 -0.659207
0.354544 -0.181855 0.745082
-0.047038 -0.347723 0.011613
-0.010684 -0.410654 0.104056
-0.013462 -0.840317 -0.025298
0.010963 -0.341446 0.109977
-0.559769 -0.439672 0.343891
0.140217 -0.113792 -0.765733
-0.048208 0.181568 -0.485026
0.098149 -0.142564 -0.482454
-0.082732 -0.553134 0.027125
0.042709 -0.462402 -0.09669
-0.103065 -0.638812 -0.009607
-0.002283 -0.741981 0.058812
-0.436867 -0.183205 -0.015611
0.017151 -0.539159 0.087046
0.712626 0.245905 0.214683
-0.020811 -0.40346 0.05176
-0.390757 0.302779 0.073811
0.23264 -0.249019 0.499059
0.160864 -0.141152 0.060392
-0.245382 -0.341961 -0.002712
0.334696 0.309391 -0.124923
-0.017325 -0.013867 -0.385698
-0.769768 0.566689 0.232967
-0.312696 -0.545531 -0.090613
-0.037607 0.104212 -0.430283
-0.594818 -0.404812 -0.157973
-0.194562 0.19747 -0.011579
-0.092795 -0.508082 0.003832
-0.339577 -0.421963 0.158609
0.021307 -0.101819 0.626721
0.256202 0.262174 -0.09545
0.245475 0.293787 -0.090648
0.141608 0.119121 -0.149427
0.137602 -0.123183 -0.686738
-0.47649 0.127397 -0.049381
-0.147269 0.154075 0.005468
0.255022 0.352466 0.556527
-0.241089 0.293894 0.021465
0.038188 -0.28205 0.049655
-0.143106 0.449791 -0.186895
0.048072 -0.442671 -0.159558
0.672308 0.116965 0.372886
0.517077 -0.247233 -0.794028
0.1118 -0.176024 -0.28885
-0.029101 -0.350699 0.05027
0.290147 0.106584 -0.31165
0.001672 -0.28238 0.391256
0.155209 -0.07218 -0.167031
-0.032204 0.09977 0.635816
-0.018957 -0.052553 -0.34166
0.45761 -0.183898 0.389599
-0.031873 -0.399035 0.12477
0.009431 0.240626 0.137398
-0.020899 -0.336648 0.010312
-0.146207 -0.502396 0.020801
-0.639576 -0.507587 0.4588
0.545212 0.061229 0.391448
0.298116 -0.148935 0.346952
0.354765 -0.014828 0.381194
-0.356128 0.004124 0.016845
-0.303355 -0.401135 0.148348
-0.02616 -0.350915 0.032393
-0.06182 -0.83731 0.008839
-0.047949 -0.023685 0.038798
0.484161 0.126354 0.151781
0.188969 -0.281838 0.444998
0.352261 -0.002271 0.37301
0.009874 -0.470265 0.163478
0.542972 0.42641 0.449876
0.082298 -0.052908 0.171412
0.000876 -0.37815 0.166483
0.009503 -0.305722 0.364845
-0.010877 -0.33116 0.23707
0.067265 -0.199567 0.658416
-0.225161 -0.054528 0.065099
-0.295077 -0.322887 0.00861
0.507003 0.288176 0.317914
0.227986 0.088251 -0.178077
0.039311 -0.2736 0.179778
0.389313 0.066485 0.146091
-0.199239 -0.444819 0.019414
-0.449152 -0.497242 -0.128472
0.151012 0.369662 -0.782264
-0.001604 -0.18717 0.523682
0.113004 -0.322449 0.265787
0.031382 0.02024 0.119335
-0.126755 -0.468965 0.03302
-0.028971 -0.08999 -0.336236
-0.195337 -0.448236 0.001576
0.101906 -0.318276 -0.325691
0.055591 -0.237415 0.215485
0.020791 -0.482916 -0.067554
0.273424 -0.230685 0.572571
-0.15539 -0.161106 0.03418
0.030792 -0.508238 -0.088094
0.065456 -0.258703 -0.067993
0.477028 0.130283 0.147718
-0.217947 -0.080608 0.042297
0.165675 -0.08121 -0.876429
0.089333 -0.167745 -0.382904
0.492818 0.050067 0.389001
-0.113415 -0.595869 -0.060957
-0.095828 -0.493543 0.029933
0.014891 -0.089559 0.63898
-0.310433 0.185482 0.09858
0.02582 -0.4611 0.184536
-0.492 -0.468686 -0.136029
0.000292 -0.406815 -0.000659
0.259108 0.363331 -0.065211
0.087211 -0.313562 -0.269442
0.203259 -0.00021 -0.165946
0.215613 -0.260924 0.487807
-0.276403 0.256684 0.032643
0.000723 -0.488508 0.127063
-0.639461 0.488214 -0.35501
-0.411231 0.035631 0.009815
0.098283 -0.216006 -0.159066
0.022107 -0.029513 0.090222
0.068651 -0.074437 0.134954
-0.008476 -0.491416 0.050018
0.04813 -0.40976 -0.193089
-0.64702 0.409906 0.020971
-0.055321 -0.546179 -0.011973
0.466909 0.12674 0.148908
-0.043327 -0.412706 -0.038043
0.104168 -0.21023 -0.163461
-0.132594 -0.592537 -0.069483
0.199498 0.036575 -0.177548
-0.209745 -0.092151 0.052453
-0.118842 -0.583394 -0.032644
0.06898 -0.345586 0.275983
-0.464482 -0.420361 0.255889
-0.017152 0.001345 -0.378242
-0.33636 -0.542517 -0.117095
0.316474 0.284346 -0.128663
0.253316 -0.254622 0.300726
0.014655 -0.31663 0.022497
0.372338 0.048349 0.134345
0.30288 -0.213309 0.617607
0.02635 -0.837448 0.011002
0.03649 -0.445011 -0.104531
0.081153 -0.241299 0.495262
-0.305098 0.458712 0.053996
0.383229 0.400664 -0.119897
-0.118747 0.148181 0.78735
0.031415 0.002872 0.119994
0.009468 -0.580991 0.022964
0.069598 -0.099094 0.129529
0.274961 -0.069637 0.36332
0.155445 -0.064836 0.559349
0.010106 -0.343459 0.346466
-0.010083 -0.35076 0.195191
0.173591 0.094495 0.007132
0.347759 0.027694 0.508705
0.03901 -0.372874 0.284142
-0.008368 -0.296651 0.407585
0.401577 0.063272 0.150056
0.277762 -0.186432 0.344364
-0.056364 0.056903 0.040753
-0.053684 -0.313583 0.040296
-0.50159 -0.464991 -0.139272
0.413181 0.434781 0.293338
-0.002432 -0.391353 0.059602
0.007224 0.023365 0.513351
-0.409522 0.038562 0.000571
0.257052 0.34119 -0.07858
0.010627 -0.503857 0.06718
0.277139 -0.225965 0.312499
-0.110464 -0.640236 -0.023298
-0.423735 -0.417692 0.222057
0.246994 0.771431 0.503912
-0.022122 -0.524537 -0.035869
0.06649 -0.223385 -0.118808
-0.176068 0.368239 -0.686642
0.010755 -0.345071 0.214417
-0.245193 -0.394147 0.000978
0.211683 0.588833 -0.056993
0.558359 0.536888 0.310569
0.024199 -0.526022 0.070471
0.05498 -0.252595 0.345942
0.518831 0.322931 0.338764
-0.161819 -0.156976 0.02843
0.055967 -0.253427 -0.1063
-0.499178 -0.44293 -0.159875
0.079752 -0.254998 0.475193
-0.292532 0.277273 -0.015072
-0.25384 0.029567 0.070559
0.254969 -0.266316 -0.531981
0.677868 0.511858 -0.1552
-0.244644 -0.392826 -0.009825
0.088001 -0.302573 0.3759
0.061956 -0.275756 0.431232
-0.09801 -0.283672 0.017021
0.275049 0.597842 -0.444663
-0.47062 -0.150173 -0.016877
0.194509 0.115408 0.005108
-0.277179 -0.339097 -0.020843
0.010715 -0.449733 0.019023
-0.252519 0.292365 0.020971
-0.576908 -0.445222 0.356073
0.064089 -0.233519 0.371947
0.235284 0.097667 -0.156595
-0.135259 0.033602 0.001052
-0.306625 -0.418347 0.122416
0.54464 0.530344 0.304153
-0.234399 -0.10291 0.034678
0.434697 0.087588 -0.472162
0.489662 0.048688 0.402427
0.120665 -0.313243 -0.321752
0.070355 -0.225324 0.550412
-0.169969 -0.482533 0.03034
0.085205 -0.183744 0.433197
-0.017292 -0.536306 -0.052691
-0.288527 0.078663 0.083219
0.265298 -0.069265 0.352949
-0.614975 0.383087 -0.243984
-0.329344 -0.512321 -0.095771
-0.276138 0.393608 0.044595
0.087032 0.020389 0.014117
0.539389 0.370793 0.398385
0.189356 0.062245 0.68038
0.006701 -0.075823 0.084681
-0.039742 -0.629822 0.050521
0.018779 -0.757805 -0.003752
-0.398804 0.321872 0.074972
0.061787 -0.252443 -0.072608
-0.420892 -0.496407 -0.115083
-0.048593 -0.703138 0.049665
-0.006561 -0.576511 0.054381
0.124697 -0.19276 0.048089
-0.03185 0.018476 0.045696
0.107479 -0.129755 0.510275
-0.297287 0.147206 0.095055
0.194004 0.010934 -0.183126
0.153526 0.057444 0.236521
-0.637536 -0.496655 0.431594
0.073914 -0.341845 -0.223782
0.448376 0.106622 0.160273
0.000231 -0.34266 0.32605
-0.063384 -0.856418 0.022899
0.301798 -0.225918 0.61059
-0.034631 -0.050786 0.041472
0.029609 -0.308475 0.300732
-0.00254 -0.313763 0.387954
0.02094 -0.335286 0.310191
0.194977 -0.109069 0.070818
0.020806 -0.841019 0.043091
0.01281 -0.122636 0.594979
-0.05045 -0.373014 0.031177
0.624715 0.21256 0.179835
-0.023212 -0.313497 -0.172251
-0.431859 -0.478426 -0.148585
0.02692 -0.044359 0.691993
-0.042861 -0.342637 -0.096754
0.148745 0.581711 0.364137
-0.048891 -0.330271 -0.158473
0.260092 -0.082283 0.097228
0.317719 -0.073287 0.392636
0.362193 0.029623 0.471677
0.147312 -0.147757 0.06486
-0.515254 0.156822 -0.061312
-0.292836 -0.521111 -0.087311
-0.264108 0.050507 0.088416
0.003788 -0.281952 0.019862
0.718284 0.136045 0.374708
0.042948 0.000158 0.470654
-0.173619 0.18213 0.023122
0.005247 -0.511749 -0.093925
-0.282483 -0.304771 -0.017521
-0.116525 0.586821 0.509046
-0.320872 -0.264075 -0.017768
-0.362035 0.262961 0.089372
0.332655 -0.035535 0.420302
-0.687869 -0.049526 -0.004982
0.027943 -0.317606 0.283701
-0.384815 0.033795 0.007479
0.381334 0.51413 0.683303
-0.586924 0.47324 0.068473
-0.2744 -0.354845 -0.016988
0.479661 0.124723 0.160664
0.010535 -0.313505 0.373628
0.156764 0.064681 0.24693
0.251236 0.440685 -0.055373
-0.489517 -0.148782 -0.03688
-0.008444 -0.411412 0.0505
-0.058548 -0.640292 0.035222
-0.018932 -0.176006 -0.303463
0.297444 -0.226716 0.618884
-0.405191 0.323194 0.068531
0.125269 0.062082 0.000692
0.029526 -0.37111 0.301691
-0.445073 0.770755 0.190802
-0.018977 -0.278133 -0.216219
-0.0058 -0.52155 0.05085
-0.17281 -0.600048 -0.037532
-0.015456 0.398448 -0.681274
0.352386 0.040962 0.533824
-0.366265 -0.418805 0.176987
-0.226728 -0.123441 0.046966
-0.027914 0.119311 -0.446867
-0.315832 -0.404643 0.127969
0.188553 0.25361 0.501449
-0.310527 0.282915 -0.012564
-0.652318 -0.008702 -0.062069
0.067412 -0.174995 0.44078
-0.038813 -0.582393 0.049433
-0.007216 -0.348545 0.246087
0.402278 -0.277276 -0.704983
-0.128905 -0.247672 0.030499
0.002876 -0.779609 -0.020573
0.028853 -0.484307 -0.122377
-0.232396 -0.370297 -0.020534
-0.154276 0.156134 0.829264
-0.302554 -0.277163 0.008214
-0.268087 0.263883 0.029492
0.201053 0.07213 0.680027
-0.046286 -0.558733 -0.017772
-0.022129 0.364905 -0.661802
0.024156 -0.037872 0.088158
-0.49369 -0.421578 0.283446
-0.108769 -0.228036 0.020515
0.244306 0.116527 -0.264616
0.149985 0.315202 -0.202448
0.131241 -0.168562 0.285064
-0.000881 -0.488397 -0.098581
0.170505 -0.048754 -0.178078
-0.394944 0.652637 0.138155
0.107926 -0.188742 0.266272
-0.013252 -0.46734 -0.025037
-0.00949 -0.055979 -0.36164
-0.006418 -0.282576 0.060548
-0.301422 -0.547866 -0.086684
-0.078781 -0.035649 0.024939
0.305251 -0.265683 -0.595305
0.228131 0.155871 0.789799
-0.001465 -0.517174 -0.005676
-0.016301 -0.074102 0.057457
-0.20674 -0.1375 0.047083
-0.07425 0.083584 0.034479
0.402403 0.317356 -0.016285
-0.011047 -0.662022 -0.020386
-0.166025 0.078235 0.009884
0.075672 -0.366285 -0.248025
0.502816 0.251923 0.290342
-0.017891 -0.3701 -0.072879
0.11015 -0.215701 -0.462376
0.305868 -0.103807 0.3736
0.11764 0.17076 -0.124478
0.097729 -0.167158 -0.529638
0.254391 -0.058639 0.362185
0.030284 -0.468271 0.115526
-0.292467 0.446075 0.054962
-0.02664 -0.172731 -0.301946
-0.261814 -0.427959 0.08959
0.257055 0.448492 -0.057622
0.085485 -0.141599 0.326886
-0.740023 -0.616071 0.646606
0.114641 -0.174393 -0.506496
-0.296854 0.465498 0.054675
0.312653 -0.09858 0.372408
0.002783 -0.491143 0.134937
-0.038229 -0.653261 -0.027963
0.021343 -0.303077 -0.036282
0.201995 -0.284151 0.273533
0.085556 -0.005303 -0.712435
-0.169832 -0.187293 0.040235
-0.039628 -0.785544 0.059624
0.092977 -0.140517 0.331377
0.191134 0.240841 0.441181
-0.581187 -0.065902 -0.047034
0.317454 -0.041211 0.372637
7.2e-05 -0.507567 -0.006083
0.004762 -0.5094 -0.032277
0.110225 -0.212478 -0.488251
0.108559 -0.323576 0.313482
0.158473 -0.293255 0.395243
-0.014602 -0.184278 0.031802
-0.021586 -0.28506 -0.175714
0.043682 -0.320814 -0.019645
0.124231 -0.134138 -0.630952
0.054771 -0.449759 -0.120874
-0.026507 -0.162531 0.038011
-0.02208 -0.670172 0.055848
0.010758 -0.664256 -0.002786
-0.134746 -0.468505 0.040313
0.342965 0.032663 0.5156
-0.497255 0.381113 0.059286
0.018354 -0.341593 0.34294
-0.792001 0.430331 0.017688
-0.077694 -0.067814 0.012064
-0.020931 -0.183126 -0.298871
0.109488 -0.294104 -0.359802
0.017736 -0.349312 0.02547
-0.013449 -0.17571 0.546843
0.029752 -0.305573 0.107547
-0.033564 -0.553249 0.052567
0.007953 -0.119436 0.074827
-0.145949 0.16064 -0.000441
0.044505 -0.42976 -0.119513
0.029105 -0.492117 0.145541
-0.212762 -0.08345 0.049862
-0.005399 -0.446764 0.086892
-0.006933 -0.393478 0.191557
-0.039864 -0.420477 0.116304
0.127358 -0.172236 -0.127486
0.407431 0.069812 0.15232
-0.323475 -0.020564 0.034105
-0.174222 -0.602255 -0.066787
-0.029882 -0.379826 -0.102627
0.032809 0.117636 0.203826
-0.047178 0.231538 -0.538662
-0.4871 -0.421456 0.277074
0.250544 -0.250454 0.292273
0.213574 0.318639 0.714846
0.546901 0.468801 0.504279
-0.51573 0.167814 -0.072792
-0.783252 -0.03921 0.014829
0.208166 0.371555 0.930618
-0.038861 -0.428025 -0.002493
-0.00811 -0.50973 -0.009617
-0.640439 -0.373995 -0.16251
0.24465 -0.097258 0.079495
-0.311697 -0.422073 0.129836
0.148095 -0.09676 -0.825561
0.068184 -0.258402 0.474215
-0.061313 -0.801806 0.006595
0.018258 -0.346332 -0.028748
0.002519 -0.600435 0.034074
0.350556 -0.269564 -0.655759
-0.443299 0.097167 -0.023562
-0.169503 -0.457235 -0.004049
0.705394 0.246049 0.20616
-0.047162 -0.37117 0.039421
-0.003264 -0.516059 0.107782
0.019242 -0.311605 -0.018893
-0.392632 -0.415697 0.176766
-0.032045 -0.65421 0.053792
-0.000899 -0.587812 0.043851
-0.053437 -0.782457 0.047979
-0.128546 0.63915 0.552885
-0.449788 0.102829 -0.029013
0.338512 -0.020983 0.451448
0.052054 -0.242632 0.205991
-0.584798 -0.088628 -0.036586
0.085304 -0.350355 0.24185
0.156456 0.069169 0.255082
0.090537 0.037481 -0.014443
0.023812 -0.052033 0.694988
-0.179688 0.106445 0.001217
0.066495 -0.274825 0.173337
-0.000222 -0.568002 0.057116
0.003671 -0.820396 0.059609
0.342739 0.029008 0.523354
-0.264438 0.791705 -0.447875
0.039224 -0.046043 0.017539
0.11756 -0.351508 0.270694
0.059874 -0.238974 0.03906
0.013759 -0.399174 0.029605
-0.035262 -0.868463 -0.022767
-0.592663 -0.410621 -0.164748
0.140599 -0.109428 -0.783625
-0.131425 -0.49023 0.049854
0.019215 -0.308017 -0.029463
0.100608 -0.152887 0.483116
0.893834 0.321007 0.255495
-0.031396 -0.420498 -0.065076
-0.215599 -0.420292 0.070074
-0.616394 -0.035221 -0.06824
0.330439 0.004139 0.118428
0.039642 0.047832 0.776534
0.085432 -0.307958 -0.280988
-0.084126 0.498498 0.446006
0.018315 -0.512336 -0.095445
-0.043195 -0.587732 -0.020243
-0.030592 -0.174358 -0.27692
0.192281 0.170474 0.278652
0.05055 -0.37111 -0.226288
0.181843 -0.080148 -0.892316
-0.020983 -0.064123 -0.361153
0.037007 -0.498076 -0.08462
-0.101396 0.097718 0.042945
0.048596 -0.369305 -0.193449
0.014063 -0.027117 0.106509
0.076959 -0.266622 -0.088048
0.059214 -0.409233 -0.195442
0.123358 0.225827 -0.15464
-0.253196 -0.432248 0.085291
0.303824 -0.049798 0.37269
-0.022755 -0.633667 -0.021386
0.167974 -0.31809 0.269348
0.589173 0.076815 0.385595
-0.276199 -0.543135 -0.115193
0.065094 -0.268175 0.19548
-0.008648 -0.069814 -0.355072
-0.117328 0.014456 0.001487
-0.028478 -0.446551 -0.042968
-0.675054 -0.33547 -0.171415
-0.670648 -0.552579 0.515745
0.037349 -0.306244 -0.057905
-0.114912 0.121037 0.040154
0.111726 -0.207287 -0.464931
-0.171295 0.155757 0.856362
0.098731 -0.139434 0.831019
-0.024098 0.070813 0.598106
-0.170203 -0.442961 0.043805
-0.219519 -0.555794 -0.047195
-0.411267 0.064279 -0.002207
-0.034035 0.331371 -0.633162
-0.426916 0.33847 0.073026
0.018202 -0.319 0.030585
-0.116739 -0.214525 0.025797
-0.020311 -0.304248 0.053069
0.13109 -0.174215 -0.134973
-0.854847 0.490621 0.149464
-0.036467 -0.453726 0.049569
0.182242 0.247875 0.476068
0.032372 0.029236 0.125464
0.194706 0.479537 -0.328684
-0.002345 -0.427702 0.114346
0.019211 0.005422 0.108446
0.002078 -0.828928 -0.021048
0.04737 -0.47157 -0.12014
0.859728 0.182972 0.367975
0.127162 0.116881 -0.126817
-0.372381 0.475593 0.15712
-0.055461 -0.858309 -0.005308
0.117254 0.110122 -0.10846
-0.291888 0.08108 0.092409
0.067059 -0.234335 0.469732
0.008408 -0.459877 0.167813
0.00818 -0.370308 0.203216
0.08139 -0.239619 0.206093
0.202965 -0.010402 -0.172437
-0.564059 0.457626 0.062956
0.069331 -0.010267 0.000689
0.146647 0.272981 -0.535667
-0.154518 -0.480894 0.048485
0.399679 0.08144 0.142808
-0.007865 -0.416446 0.096653
-0.625871 -0.009774 -0.08224
-0.452794 0.787224 0.196993
-0.058092 -0.538377 -0.002919
-0.282502 0.078667 0.098945
0.096591 -0.018587 0.169667
0.005095 -0.499969 0.001029
-0.169339 0.171051 -0.011529
-0.692741 0.419581 0.021638
0.202652 0.093874 0.715779
-0.362322 -0.012955 0.031325
0.25524 0.423419 -0.054955
0.345495 -0.016204 0.440986
0.270709 0.270898 0.30085
0.148913 -0.042611 0.584736
-0.077706 -0.262495 0.027534
0.425112 0.327042 -0.025514
0.489834 0.232743 0.273256
0.253959 0.14326 -0.15901
-0.051018 -0.533741 0.028123
-0.029238 -0.207399 -0.247007
0.174362 -0.281837 0.408999
0.017492 -0.724417 -0.000862
-0.255452 -0.410556 0.09402
-0.250638 -0.530545 -0.096031
0.029733 -0.515029 0.11169
0.14212 -0.119869 -0.726734
0.00919 -0.361877 0.297886
-0.338852 0.225137 0.104716
-0.029376 -0.379463 0.049799
0.043635 -0.384605 0.248626
-0.273496 0.071771 0.094406
0.058069 -0.369571 0.22592
0.030301 0.149207 0.215787
-0.194945 0.169835 -0.000622
0.132672 -0.342503 0.265781
-0.176775 -0.441887 -0.01048
-0.157362 -0.488751 0.042829
0.009595 -0.146446 0.03993
0.369955 0.398987 0.291014
-0.11619 -0.625149 -0.012125
0.066649 -0.373989 0.214418
-0.066323 -0.684449 0.017264
-0.285425 -0.32808 -0.02021
0.218008 -0.109535 0.066047
-0.011855 -0.497303 -0.016193
-0.005665 0.069668 0.06401
-0.019686 -0.352581 -0.098126
0.010856 -0.393458 0.050157
0.134999 -0.16178 0.059092
0.076746 -0.298557 0.348782
0.320033 -0.103503 0.373547
-0.465719 -0.479967 -0.129583
0.093641 -0.370923 0.264347
-0.048677 -0.276962 -0.201601
0.042693 -0.229818 0.383854
-0.296037 -0.068973 0.032138
-0.19185 -0.588096 -0.07787
0.077741 -0.381386 -0.213073
-0.092134 0.106679 0.013766
0.121042 -0.150273 -0.560324
-0.103066 -0.595392 -0.018594
0.122372 0.114715 -0.117067
0.010247 -0.624728 0.022971
0.086674 -0.229395 0.040209
-0.070402 -0.634981 -0.040939
0.541022 -0.154853 0.429505
0.130114 -0.33879 0.278017
-0.708847 -0.576446 0.565451
0.079409 -0.205273 0.420818
0.240491 0.469164 -0.059837
0.162154 -0.080453 -0.175788
0.253966 0.214473 0.856922
0.057369 -0.131719 0.110915
0.339037 0.017434 0.502521
0.35541 0.488205 0.657332
0.575478 0.459968 -0.102621
-0.20577 0.194993 -0.011068
-0.538526 0.175444 -0.088369
0.271245 -0.051969 0.091046
0.213577 0.077348 -0.169855
0.470195 0.172701 0.215131
-0.218875 -0.373701 0.00778
-0.447418 -0.49008 -0.12368
-0.313634 -0.037356 0.026993
0.176823 0.159664 0.331297
0.19302 0.213144 0.414163
0.025058 -0.438944 0.20604
0.386358 -0.156922 0.833627
0.342105 0.006865 0.128616
0.329576 0.654188 -0.519302
-0.029275 0.060985 -0.427086
0.127618 0.244564 -0.164697
0.168565 -0.074402 -0.929801
0.009013 -0.78428 -0.01646
-0.47864 0.130579 -0.041693
0.531768 0.151361 0.162488
-0.01207 -0.637647 -0.017913
0.033045 -0.049926 0.697228
-0.792041 -0.262346 -0.147497
0.2644 0.175813 0.007171
0.127574 -0.216309 -0.452943
0.323559 -0.100227 0.381068
0.383384 0.009233 0.393969
-0.033501 -0.3808 -0.050033
0.221695 0.122486 -0.246623
-0.244662 -0.381482 -0.019444
-0.577445 -0.057953 -0.047722
0.097125 -0.167179 0.267362
-0.024077 -0.371399 -0.108048
0.013694 -0.383289 0.002471
0.185934 -0.118825 0.316236
0.038409 -0.124878 0.11937
-0.115823 -0.219187 0.034097
0.044925 -0.143154 0.089509
0.049806 -0.136843 0.096266
-0.427154 -0.163937 -0.028751
0.136096 -0.147167 0.285032
-0.079189 -0.603421 -0.018292
0.042206 0.368612 0.189938
0.577307 0.186917 0.168006
0.035445 -0.47711 0.160681
-0.039644 -0.401748 -0.077606
-0.673002 0.463789 0.057576
0.341948 -0.27404 -0.647602
0.334392 -0.196502 0.695673
0.125353 -0.148181 -0.577671
-0.041488 0.313537 -0.626412
-0.015943 -0.663609 0.054065
0.242572 0.173229 0.810003
-0.037331 -0.220815 -0.259959
0.048636 -0.282103 0.335163
0.105358 -0.128764 0.481438
-0.539285 -0.420131 -0.165652
0.009789 -0.467865 0.116039
0.14778 0.271246 -0.526402
-0.853311 -0.226892 -0.137324
-0.04292 -0.239659 -0.235146
0.313566 -0.269073 -0.596252
-0.019409 -0.503169 -0.016701
0.95488 0.359924 0.282167
-0.213515 -0.131652 0.049738
0.527633 0.152033 0.1537
-0.14538 0.151984 0.822217
-0.198729 -0.450429 0.0117
0.169717 0.231876 -0.420021
0.067098 -0.177532 0.726122
-0.862829 0.491384 0.157504
-0.224857 0.706247 -0.389089
0.390794 0.070636 0.138716
0.116963 -0.13014 0.505169
0.322092 -0.028823 0.104228
0.25653 0.260114 -0.107138
-0.15259 -0.170206 0.041852
0.411509 -0.273997 -0.703447
-0.086262 0.252632 -0.055321
0.206548 0.165447 0.278637
-0.114809 -0.503663 0.046861
-0.02159 -0.143175 0.01948
-0.209033 -0.413534 0.020038
-0.357973 0.311265 0.109239
0.057874 -0.212392 0.392115
0.23846 -0.077357 0.364735
0.253043 0.32977 -0.070339
0.075005 -0.207783 0.539945
0.189475 0.236226 0.430466
0.675605 0.237634 0.20016
-0.035475 -0.105368 0.018267
0.335137 -0.273703 -0.639939
0.334 -0.04183 0.414334
0.064775 -0.337301 -0.249783
-0.463048 0.383765 0.018137
0.224882 0.048833 -0.171895
0.000561 0.252775 0.304659
0.407656 -0.190197 0.357072
-0.049985 0.380771 0.383606
-0.527213 0.4195 0.026126
0.408981 0.019086 0.398344
0.508992 0.297722 0.317942
0.303182 0.622712 0.030165
-0.195875 -0.461204 0.039742
0.181156 -0.282078 0.440825
0.341294 5.3e-05 0.460412
0.486698 0.054591 0.39472
-0.234831 -0.077763 0.053063
0.01451 -0.330807 0.314129
-0.035578 0.043451 -0.399524
0.10269 -0.214536 -0.118577
0.15331 0.381507 -0.251997
-0.948677 -0.119873 -0.129802
-0.605406 0.400556 0.026666
0.09947 -0.068699 -0.646261
0.005766 -0.431852 0.001607
-0.688707 -0.566743 0.538669
-0.439403 -0.171738 -0.039397
-0.029047 -0.803113 0.063603
0.092324 0.008583 0.010094
0.178105 -0.263326 -0.448719
-0.615701 -0.481351 0.398964
0.289851 -0.23214 0.584717
0.028135 -0.43103 0.21674
0.166937 -0.312895 0.26246
-0.608546 -0.040028 -0.068772
-0.048061 -0.314144 -0.133512
-0.602747 -0.0467 -0.067605
-0.005512 -0.341406 0.207498
-0.023794 0.068443 0.585994
0.217979 0.302972 0.510573
0.059148 -0.051759 0.413089
-0.114796 -0.634042 -0.045637
-0.263829 -0.068392 0.046566
0.118593 -0.29271 -0.319438
-0.098042 0.140011 0.744643
-0.03079 -0.586429 0.05079
-0.063881 -0.746445 0.01504
-0.066757 0.126265 0.708829
0.137938 -0.116024 -0.71856
0.058029 -0.429985 -0.12736
-0.470542 -0.420215 0.235618
-0.203453 -0.390272 -0.010257
-0.345594 -0.027065 0.041474
0.019997 -0.723279 0.007822
-0.278129 -0.406252 0.107896
-0.300933 0.448721 0.05244
0.160131 0.60349 0.380596
-0.422648 -0.17009 -0.032484
0.283831 -0.067132 0.098038
0.335363 -0.189255 0.717612
0.014907 -0.415483 0.202023
0.238904 -0.282958 -0.514415
-0.866326 -0.204282 -0.133686
0.068563 -0.258154 0.171528
0.135411 0.263735 -0.173588
-0.399129 0.050847 0.010657
0.119271 -0.231162 -0.430678
-0.107106 -0.228982 0.032287
0.084679 0.028629 -0.019863
0.082488 -0.354622 0.302094
0.226394 0.145983 0.781808
0.012356 -0.324729 0.082567
-0.074917 0.459054 0.422939
0.061041 -0.424503 -0.133719
0.053292 -0.361149 -0.200111
-0.17224 0.736209 0.663551
0.061504 -0.246279 0.388591
-0.06756 0.20631 -0.016493
-0.029564 -0.048548 0.051682
-0.547984 -0.108094 -0.040556
0.331999 -0.04961 0.408368
0.103277 -0.156887 0.279819
0.214987 0.719064 0.475703
-0.245967 -0.108282 0.052533
0.029076 -0.507998 -0.096489
-0.141445 0.049714 0.017793
0.041785 -0.292891 -0.029073
0.186034 0.236978 0.460753
-0.04061 -0.546789 0.048675
-0.02044 -0.351281 -0.118942
0.182179 0.141246 0.265669
0.070624 -0.309068 0.377721
-0.676373 -0.342957 -0.155725
0.361198 0.679545 -0.554388
-0.660349 -0.5434 0.496257
-0.120354 -0.261162 0.027153
-0.672847 0.00934 -0.047233
0.529122 0.358033 0.38368
-0.695282 0.057674 -0.218577
-0.019421 -0.078283 -0.329724
0.011124 -0.280507 0.059956
-0.097152 -0.526738 0.001082
-0.193976 -0.452858 0.040015
0.007935 -0.532734 -0.070292
0.00015 -0.128775 0.600281
0.074768 -0.078468 0.398073
0.050443 -0.278312 0.346223
0.201541 0.13439 0.013782
-0.027835 -0.042952 -0.352074
-0.631278 0.45825 -0.319431
0.280092 0.39004 0.587662
0.128837 -0.296311 -0.332835
-0.166344 -0.154265 0.048147
0.254194 -0.069225 0.349215
-0.052336 0.292561 -0.606852
0.12361 -0.107419 0.938063
0.037977 -0.467299 0.17164
-0.009386 -0.047978 -0.347841
0.002203 0.229348 0.277867
0.004771 -0.582985 0.039429
0.000657 -0.15796 0.04605
0.010111 -0.446167 0.180499
-0.537067 -0.436316 0.324934
0.124328 -0.175527 0.071837
0.367688 0.406134 0.295683
-0.011168 -0.338722 0.244969
0.098399 -0.198007 0.2522
0.195418 0.02914 -0.169297
0.387425 0.086095 -0.399557
0.197446 0.055475 0.674763
-0.246672 0.756441 -0.424445
0.020115 0.009951 0.127443
-0.225337 0.792104 0.774351
-0.040318 -0.420841 -0.026975
-0.517915 0.379813 0.053756
0.081146 -0.242305 0.46324
0.286928 -0.06052 0.092497
-0.449276 -0.423197 0.227161
0.048026 -0.128348 0.099571
0.306862 -0.023514 0.118066
0.074589 -0.200925 0.624188
-0.282424 -0.560456 -0.097413
-0.724171 0.033314 -0.0453
0.132771 -0.133747 -0.632848
-0.23408 -0.355069 0.000263
0.117921 -0.16786 -0.528614
0.309227 0.638199 -0.49417
-0.196013 0.145406 0.010753
0.228925 -0.099226 0.346004
0.170331 -0.144835 0.083525
0.095064 -0.161458 -0.448991
-0.022823 -0.463357 0.075938
0.17937 0.203418 -0.326096
-0.333167 0.525238 0.072389
-0.04023 -0.800795 0.059224
0.002158 0.051321 0.548163
0.04583 -0.255715 0.034665
0.00706 -0.294685 0.282473
-0.127069 0.614585 0.536172
-0.41054 -0.500098 -0.111882
0.059908 -0.127135 0.118302
-0.010034 0.050161 0.061559
0.07552 -0.323983 0.346083
0.02738 -0.280454 0.031412
-0.023903 -0.740923 0.061976
0.109202 -0.179814 0.28224
-0.337743 -0.27466 -0.015913
0.155644 0.258794 -0.499286
-0.454832 0.74386 -0.262245
-0.390815 -0.393546 0.185227
-0.041587 0.039941 -0.415591
-0.484464 0.137111 -0.050506
-0.024325 -0.425861 -0.012132
-0.254562 -0.429887 0.118131
0.567608 0.182319 0.165923
0.202477 -0.101922 0.076401
-0.058823 -0.814957 0.039906
-0.006305 -0.437552 -0.01586
0.211498 0.120633 0.731618
-0.10644 -0.484387 0.019615
-0.487454 0.38553 0.089672
-0.024823 -0.105704 -0.319761
0.258489 0.201007 -0.126415
0.377974 -0.199346 0.354946
0.020695 -0.092626 0.060064
-0.003005 -0.511874 -0.086822
0.396286 0.427419 -0.117319
-0.284417 -0.40406 0.113451
-0.040165 -0.417688 -0.062495
0.187238 -0.303179 0.285043
0.086209 0.019204 -0.013052
-0.375424 0.006417 0.012689
-0.335026 -0.401679 0.139682
-0.106885 -0.630033 -0.051527
-0.086644 0.106374 0.020995
0.404007 -0.274632 -0.696798
-0.065165 -0.334053 0.040532
-0.02357 -0.385235 0.197344
0.091479 -0.085604 -0.608482
0.02708 -0.826217 0.024928
0.090464 -0.300642 0.366635
0.079259 -0.209913 -0.143395
-0.330685 0.30298 0.0339
-0.064189 -0.593092 0.017761
-0.063841 0.127915 0.700487
0.024107 -0.268938 0.320711
0.289021 0.313806 0.296256
0.184455 -0.283358 -0.461865
-0.231441 -0.431413 0.104107
-0.669794 0.026896 -0.156544
-0.551452 0.214902 -0.115769
0.188345 0.250175 0.463484
-0.751371 -0.300703 -0.144715
0.077697 -0.066808 0.383653
-0.116294 -0.629118 -0.052519
0.246588 0.192447 -0.132969
-0.109833 -0.271932 0.022404
0.238274 0.546598 -0.397342
-0.629638 -0.011735 -0.060153
0.464964 0.155141 0.201773
-0.330604 0.236366 0.105297
-0.433903 -0.16344 -0.017025
-0.008461 -0.182425 0.519753
-0.561593 0.208059 -0.117469
-0.035963 -0.73673 0.059145
0.115638 -0.179503 -0.49938
-0.474755 -0.408544 0.260078
0.363231 0.010079 0.117961
-0.843059 0.602551 0.263075
0.208462 0.35143 0.858484
-0.570163 0.463751 0.064861
0.120337 -0.321421 0.258656
0.068597 -0.350839 0.265215
0.117803 0.514346 0.312292
-0.108668 -0.606962 -0.008956
0.016072 -0.331247 0.230078
0.198664 -0.271116 0.437108
0.449531 -0.175703 0.386957
0.061759 -0.230816 0.485951
0.214381 0.057524 -0.161019
-0.272505 -0.414873 0.132776
0.330967 -0.021389 0.107469
0.077466 -0.17773 0.461543
0.067345 -0.227673 0.059476
-0.01622 -0.204531 -0.250767
-0.058687 0.06647 0.04068
0.074497 0.037313 -0.762856
-0.010186 -0.206067 0.520207
-0.005462 -0.205428 0.496794
-0.040982 -0.70379 0.0548
-0.429085 -0.475309 -0.13123
-0.250796 -0.341921 -0.020082
-0.038893 0.023481 -0.406795
-0.27957 -0.549106 -0.073596
0.244551 0.157938 0.01994
-0.288901 -0.060058 0.052604
-0.001275 -0.680888 -0.01756
-0.030334 0.097257 -0.443751
-0.617369 0.360814 -0.231802
0.05667 -0.438808 -0.16038
0.039659 -0.276549 0.05599
-0.163758 0.070543 0.006308
-0.341602 -0.032407 0.028512
-0.014039 -0.439413 0.051969
0.254529 -0.255219 0.544215
-0.835027 -0.239933 -0.136194
-0.21533 -0.090807 0.058836
-0.387981 0.64896 0.134337
-0.012458 -0.503262 -0.067967
-0.075433 -0.546705 0.035477
-0.016642 -0.821228 0.06553
-0.044404 -0.425133 0.030757
0.268527 -0.278359 -0.554411
-0.309651 -0.423901 0.139055
0.407199 0.009929 0.389053
0.334513 -0.059782 0.405539
0.636443 0.208057 0.18432
-0.006293 -0.693395 -0.021606
-0.354684 0.253546 0.092734
0.701153 0.136098 0.376383
-0.246932 -0.439806 0.09009
-0.313818 0.154594 0.102169
-0.040519 -0.287891 -0.162945
-0.111431 -0.621523 -0.05872
-0.0235 -0.009637 -0.390682
-0.045693 -0.262074 -0.219441
-0.173586 -0.175009 0.023666
0.200525 -0.269866 -0.465969
-0.047802 -0.312799 -0.177466
-0.054115 0.106957 0.664124
0.585535 0.08268 0.390532
0.204719 -0.130933 0.071689
0.143452 0.124882 -0.157277
-0.269405 0.068433 0.087687
0.019991 -0.179009 0.039678
-0.000248 -0.459065 0.04963
-0.120026 -0.473891 0.035109
0.047602 -0.257269 -0.080284
0.058622 -0.241912 -0.086393
0.517335 0.064178 0.395506
-0.867963 -0.210939 -0.13879
0.225848 -0.105758 0.088947
-0.039735 0.078577 -0.418809
-0.050714 -0.357871 0.041078
-0.303236 0.155686 0.095223
-0.008174 -0.354741 0.061579
0.076149 -0.15568 0.463923
0.330174 0.348784 0.294334
0.001701 -0.148138 0.55908
-0.046867 -0.395384 -0.076948
0.131149 -0.129889 -0.685499
-0.261799 -0.330715 -0.020048
0.170802 -0.011002 0.62403
0.747671 0.149938 0.371513
0.121188 0.216589 -0.153648
0.138116 -0.279852 0.398677
0.060789 -0.277701 0.421869
-0.410042 -0.494211 -0.14632
-0.004092 -0.555964 0.066775
0.166751 0.096999 0.272261
-0.354349 -0.517439 -0.133178
-0.046102 0.30875 -0.621143
0.392855 0.094108 -0.420009
0.22899 -0.105462 0.069802
0.587119 0.085596 0.381066
0.000733 -0.444539 -0.009171
-0.759316 0.067689 -0.040897
-0.047791 -0.126803 0.026729
-0.019093 -0.260393 -0.233985
0.106892 -0.330144 0.333629
0.131537 -0.126279 -0.159712
0.238973 0.336669 0.538762
-0.023701 -0.586101 -0.026133
0.246232 0.228983 0.29714
-0.201826 0.165424 0.013033
0.360008 -0.198962 0.349393
-0.030503 -0.472085 0.059734
-0.068899 -0.656504 -0.029121
0.019282 -0.501027 0.137963
0.198237 -0.093367 0.33591
0.117745 -0.189494 -0.132096
0.184429 0.026232 0.651712
0.140169 0.075357 0.016297
0.181197 -0.263651 -0.456976
-0.745772 0.047897 -0.042703
0.018987 -0.37511 0.250372
-0.108359 -0.012857 0.009903
-0.375693 -0.222059 0.000798
-0.038297 -0.273488 -0.180734
0.000587 -0.179777 0.066734
0.137467 -0.161775 0.286715
-0.230058 0.225746 -0.015453
0.23158 0.143982 0.007561
-0.353389 0.323047 0.001546
0.074907 -0.375348 -0.233136
0.375754 0.047279 0.125165
-0.041331 -0.364796 -0.120383
-0.104568 -0.251673 0.011661
-0.037394 -0.428529 0.114988
0.546431 0.451191 0.479084
0.187289 0.273247 0.563042
0.221222 0.08673 -0.161446
-0.011498 -0.503904 -0.059482
0.181178 -0.13836 0.059701
-0.296279 -0.51693 -0.093812
-0.423244 0.063795 -0.014372
-0.098859 0.524471 0.466921
-0.062924 -0.619682 0.027512
0.074029 -0.175677 0.432646
-0.506816 -0.122687 -0.038667
0.175183 0.424792 -0.286734
0.620169 0.097919 0.383158
0.127287 -0.140616 0.304409
-0.723795 -0.594216 0.608354
0.026917 -0.478948 0.162161
-0.030033 -0.439374 -0.048566
0.051804 -0.406356 -0.142557
0.176465 0.442614 -0.293358
-0.327159 -0.405651 0.165334
0.041107 0.012098 0.750492
0.246005 -0.257907 0.292957
0.076672 -0.185311 0.25497
0.180643 0.260773 0.526644
-0.040565 -0.341707 0.014517
0.188259 0.262699 0.523373
0.460393 0.061912 -0.425291
-0.148092 0.047408 0.000708
0.030911 0.004899 0.49313
0.216138 0.342546 0.796315
0.215329 0.072816 -0.177481
0.53529 0.057953 0.392422
0.069172 -0.282268 -0.071266
0.108412 -0.196761 -0.479453
-0.018013 -0.002918 -0.3911
-0.076317 -0.512219 0.008818
-0.663826 -0.353307 -0.175305
-0.627666 -0.012898 -0.092271
0.079094 -0.205961 -0.134683
0.007515 0.179746 0.251866
0.190844 -0.124543 0.325297
0.070851 -0.391656 0.247635
0.326532 -0.086792 0.395064
-0.653917 -0.35121 -0.175639
-0.245027 0.235929 0.034831
0.470112 0.482622 0.294252
-0.068287 -0.568792 0.032397
0.02383 -0.214401 0.040898
-0.019059 -0.274941 0.405987
0.851084 0.303514 0.251572
0.065821 -0.107477 0.136625
0.078844 -0.221281 0.544244
-0.019789 -0.249256 -0.244815
-0.02703 0.046801 -0.404577
-0.035062 -0.427044 0.132637
0.068151 -0.211286 0.397004
-0.346102 0.242701 0.096403
-0.07342 0.12594 0.703605
0.000353 -0.020252 0.04625
0.000624 0.024134 0.056255
0.060718 -0.267417 -0.100701
-0.516088 -0.463461 -0.158868
-0.051129 0.106866 0.672196
-0.412429 -0.502469 -0.146919
0.011531 -0.51447 -0.0324
0.243204 0.162816 -0.152269
-0.00397 -0.333243 0.353729
-0.040571 -0.000161 0.039175
0.000419 -0.154687 0.551891
-0.617891 0.383661 -0.251962
-0.39608 -0.184962 -0.019247
0.385064 0.06874 0.470947
-0.015938 0.007659 0.041346
-0.202032 -0.558368 -0.043341
-0.569722 -0.399001 -0.170204
0.288379 -0.186035 0.331985
0.255736 -0.249865 0.307857
-0.547954 -0.429802 0.318603
-0.69689 0.015764 -0.05377
-0.689832 0.056547 -0.211563
0.049236 -0.308467 -0.025411
0.078232 -0.301909 0.341073
-0.23641 -0.547019 -0.056034
-0.200797 -0.425742 -0.015297
-0.560396 -0.403859 -0.165323
0.009115 -0.675271 -0.006508
0.089568 -0.234561 -0.129333
-0.075389 -0.05087 0.00637
-0.007253 -0.769472 0.063099
-0.380559 0.336254 0.0071
0.030868 -0.416854 -0.146316
0.010085 -0.53708 0.029421
-0.379139 0.527657 0.176549
0.294142 -0.039549 0.116148
0.10837 -0.310935 -0.341001
0.392441 0.702097 -0.58109
0.27114 0.594828 -0.437231
0.019756 -0.177169 0.082047
-0.438017 0.761554 0.186977
0.02526 -0.526284 -0.052713
0.008681 -0.313933 0.099361
0.215097 0.17949 0.284213
-0.019635 -0.252977 0.429089
0.089557 -0.188668 -0.212613
0.117975 -0.156 0.273818
0.050612 -0.243664 0.351258
0.091769 -0.04897 -0.665431
-0.0649 -0.621504 0.005651
0.00969 -0.194409 0.070295
0.068369 -0.174776 0.452278
0.000659 -0.384572 0.160168
0.082338 -0.323903 -0.297737
0.124873 -0.329898 0.281423
0.009328 -0.529727 0.006576
-0.282454 0.420573 0.03954
-0.017291 -0.266528 -0.225808
0.228759 0.201429 0.280678
-0.752554 -0.292087 -0.141569
-0.366965 0.311446 0.108195
-0.592818 -0.050423 -0.06816
-0.125208 -0.628014 -0.051112
-0.479354 -0.421051 0.2431
-0.782592 0.082337 -0.037729
0.196279 -0.025156 -0.175796
-0.090006 -0.635663 0.002577
0.008565 -0.709152 0.046238
-0.323973 0.526515 0.072846
0.025395 -0.835877 0.033401
0.049213 -0.105013 0.118165
0.008646 -0.536315 0.093897
-0.499959 -0.14225 -0.021598
0.000961 -0.512706 0.114379
0.433691 0.344371 -0.033711
0.01863 -0.293714 0.318326
0.205781 -0.263242 0.4761
-0.127882 -0.518667 0.019388
0.116606 -0.139864 -0.576867
0.05742 -0.261046 0.345225
-0.224371 -0.544222 -0.091836
-0.162734 0.097202 -0.002329
0.293331 -0.218618 0.620659
0.27303 -0.201885 0.335635
-0.148849 0.042482 0.008704
-0.105993 -0.533948 0.031155
0.090106 -0.038271 -0.663946
0.318712 -0.067014 0.404031
-0.004397 0.2296 0.290785
-0.559911 -0.408123 -0.155313
0.234825 0.07948 -0.17368
0.024979 -0.444759 -0.147635
-0.04199 -0.514648 -0.014703
-0.242897 0.235198 -0.014112
-0.000548 0.137155 0.087358
-0.412781 0.045292 -0.003744
0.063667 -0.294481 0.381985
-0.050964 -0.353125 -0.095745
-0.000101 -0.107661 0.07054
-0.335538 0.244848 0.096706
-0.59659 -0.378976 -0.171295
0.066149 -0.21447 0.215993
0.115314 -0.255104 -0.402144
-0.601462 -0.478493 0.401047
0.130055 -0.244831 -0.449658
0.017433 -0.37029 0.055233
0.018188 -0.074854 0.666692
0.035814 0.10863 0.832969
-0.049398 -0.356574 -0.087265
-0.042524 -0.761808 -0.018535
-0.766571 0.43019 0.020139
-0.461114 -0.488237 -0.15689
0.354681 0.2595 0.001194
-0.21829 0.696888 -0.381037
-0.03603 -0.610885 0.049954
0.263005 -0.058436 0.087654
0.783138 0.166351 0.372043
-0.043426 -0.134102 0.029059
-0.148992 -0.171717 0.03006
0.017567 -0.144225 0.043322
-0.546927 0.386061 0.041764
0.239995 0.486323 -0.05654
0.363662 0.093391 0.637302
-0.153634 0.70275 0.626449
-0.010778 -0.036178 -0.370567
-0.466313 0.096427 -0.029767
0.109372 0.076034 -0.07965
0.23159 0.222744 0.28379
0.11606 -0.117615 0.911132
0.005218 -0.15917 0.560792
-0.382687 0.550675 0.19066
-0.021991 -0.337167 -0.1164
-0.120052 -0.62139 -0.059054
-0.250072 0.25033 0.036001
-0.152945 -0.56854 -0.065006
-0.011304 -0.35024 0.000752
-0.055932 -0.727946 -0.007477
-0.388798 0.29495 0.080974
-0.096896 -0.492871 0.016841
0.025539 -0.755539 0.020186
-0.069195 -0.079801 0.009807
-0.044898 -0.33114 0.015057
-0.188563 0.373936 -0.69198
0.391878 -0.153927 0.843776
0.010873 -0.553182 -0.015521
-0.707059 -0.322247 -0.169262
0.060626 -0.439648 -0.152657
0.00659 -0.657815 0.038638
0.032405 0.109778 0.198488
0.118906 0.185617 -0.134264
0.145625 -0.092488 -0.817888
-0.209458 -0.575315 -0.045133
-0.035313 -0.411393 -0.028051
-0.050653 -0.499254 -0.00287
0.088164 -0.375488 0.227737
0.092743 -0.089759 -0.617142
-0.166315 0.597304 -0.306271
0.422864 -0.272952 -0.714168
-0.205388 -0.100929 0.046278
-0.085579 0.059771 0.039715
0.259103 0.365867 -0.073506
0.026286 -0.520516 -0.067904
0.263619 -0.241655 0.539664
-0.141025 0.060447 0.014317
-0.029324 -0.394485 -0.037807
-0.556785 -0.451514 0.343937
-0.630228 -0.013327 -0.075731
-0.01392 -0.259454 0.417116
-0.034567 0.115577 0.031114
-0.672885 -0.351038 -0.15796
0.215543 -0.267426 -0.484899
0.116556 -0.344871 0.278037
0.137892 -0.121266 -0.695859
0.049331 -0.270518 0.323212
-0.005449 -0.362611 0.233778
0.118847 -0.211569 -0.491681
0.198276 -0.101038 0.326397
0.255065 0.252059 -0.111172
0.27148 0.222531 -0.126133
-0.062782 -0.856531 0.013676
0.104112 -0.14697 0.304152
-0.317954 -0.299254 0.005189
0.023275 -0.305456 0.147977
0.048121 -0.268298 0.191574
0.137382 0.078225 0.003065
0.504111 0.264581 0.289548
-0.140392 -0.477285 0.004177
-0.193477 -0.453761 0.074998
0.108122 -0.352158 0.253917
0.125453 0.027835 0.22159
-0.006093 -0.322031 0.34576
0.129841 -0.256275 -0.430659
-0.006152 -0.175994 0.04836
0.038686 -0.429325 0.165942
0.494788 0.041338 -0.432304
0.260858 0.218488 -0.11967
-0.384189 -0.408973 0.166206
-0.287774 -0.297123 -0.016625
0.248673 0.297106 -0.082927
-0.016214 -0.081389 0.041982
0.091007 -0.200479 0.267261
0.137487 -0.30958 0.26283
-0.059822 0.260947 -0.577629
0.172838 -0.082855 -0.173365
0.036798 -0.282136 -0.042593
0.058605 -0.264835 0.354114
-0.036145 0.112712 -0.43416
0.263938 -0.223693 0.303729
-0.731547 -0.03885 -0.001493
0.065986 -0.2167 0.389959
0.285425 -0.279353 -0.560687
0.811209 0.294206 0.24793
0.07046 -0.198728 0.236264
-0.616262 -0.392038 -0.167517
-0.186098 -0.597791 -0.047798
-0.049875 -0.639181 -0.031349
0.553304 0.064301 0.393336
-0.43151 -0.473404 -0.139316
0.085934 -0.206217 -0.110773
-0.183237 -0.601486 -0.05609
0.010506 -0.636179 0.001578
-0.443849 -0.477083 -0.154153
0.402948 -0.194732 0.365924
-0.520014 -0.433818 0.284102
0.194287 0.053358 0.657708
-0.028768 -0.401455 0.048045
-0.512862 -0.41963 0.274842
-0.016051 -0.284975 0.055625
-0.049448 -0.371436 0.019986
-0.011155 -0.313797 0.013707
-0.514625 -0.127104 -0.019058
-0.114457 0.107539 0.028362
-0.264857 0.364256 0.029645
0.020567 -0.082098 0.648123
0.023351 -0.404831 0.249827
-0.032792 -0.761718 -0.023355
0.073659 -0.082394 0.134273
-0.038165 -0.248375 -0.211998
-0.054261 -0.319575 -0.136188
0.763766 0.15528 0.375893
0.05822 -0.400971 0.235861
-0.743685 0.048199 -0.051338
0.072797 -0.230583 0.06542
-0.050964 -0.572714 -0.014962
-0.02585 -0.420788 0.083214
0.010625 -0.563657 0.033019
0.619753 0.484109 -0.126667
-0.063054 -0.785325 0.01558
-0.195197 -0.11348 0.042173
0.006863 -0.349237 0.046511
0.331213 0.355988 0.300299
0.192916 0.215573 0.40374
0.031766 -0.444809 -0.152976
-0.084422 -0.511691 0.037758
0.138084 -0.07142 0.565137
-0.440723 0.346799 0.062606
-0.030397 0.089883 0.040158
-0.69999 -0.044694 -0.002127
-0.49974 -0.441164 -0.15042
-0.647163 -0.064271 -0.018681
-0.30201 0.848046 -0.482839
-0.066889 0.430453 0.410882
-0.049343 -0.457322 0.010233
-0.002516 0.019011 0.049761
0.079408 -0.280761 0.435333
0.074999 -0.338986 0.279399
0.244608 0.198174 0.835581
-0.039549 -0.38994 -0.046167
0.117607 -0.150346 0.282521
-0.025551 0.021859 0.050594
-0.488088 -0.461248 -0.134995
0.060631 -0.214034 0.5705
0.096242 -0.206549 -0.110295
-0.677003 -0.557571 0.519714
0.089171 -0.232906 -0.102962
0.100268 -0.226534 0.043727
0.295903 -0.170538 0.339854
-0.201265 -0.435908 0.084171
0.078909 0.440533 0.239855
0.19221 0.283584 0.581201
0.196635 -0.267879 0.286068
0.078728 0.032912 -0.752058
0.208482 -0.271003 0.276656
-0.257187 -0.376209 -0.016394
0.115841 0.092456 -0.075647
0.244559 0.157205 -0.144898
0.343593 -0.003565 0.473496
0.276741 -0.246929 0.563129
-0.794405 0.483332 0.103799
0.119187 -0.184963 -0.123312
0.302728 -0.111345 0.370365
0.241743 -0.245627 0.519273
0.06311 -0.353117 -0.253868
-0.642274 -0.350976 -0.164674
0.127328 0.040147 0.214071
-0.162848 -0.489436 0.029826
0.058309 -0.233923 0.501176
-0.334843 0.217915 0.107251
-0.177591 0.190164 0.023978
-0.342641 -0.002877 0.029988
0.370995 0.020941 0.118977
-0.302556 -0.297738 0.013091
0.205191 0.126247 0.01777
0.001039 -0.002497 0.064097
0.149087 0.075006 0.014838
0.303654 0.265609 -0.137366
-0.102408 0.32852 -0.111924
-0.140416 0.507663 -0.234687
0.094443 -0.14646 -0.491561
0.735405 0.535142 -0.193642
0.350862 0.381811 0.300595
0.18349 0.138671 0.308959
-0.007006 -0.816694 -0.024017
-0.014604 -0.389294 0.198338
-0.084781 0.505171 0.45247
-0.571042 -0.4518 0.338149
0.036428 0.029303 0.761647
0.336767 -0.028397 0.425229
0.489061 0.224109 0.267496
-0.324712 -0.049661 0.036996
0.057777 -0.10678 0.141063
-0.470731 0.1143 -0.046324
-0.194878 -0.14646 0.030496
0.040119 0.070959 0.803004
0.034362 -0.046527 0.024722
0.000327 -0.536718 0.029152
-0.403629 -0.18244 -0.013551
-0.002732 -0.047996 0.049522
-0.265796 -0.32408 0.006681
0.000546 -0.059376 0.068757
0.216545 0.329152 0.74273
0.147179 0.293235 -0.194596
-0.502583 0.404839 0.017832
-0.274593 0.063653 0.077898
0.047387 -0.107396 0.134883
-0.596753 -0.476393 0.383458
-0.025378 -0.579337 0.05361
-0.004928 -0.027952 0.046015
0.263113 -0.071397 -0.998297
0.179624 -0.269155 -0.438118
0.105602 -0.3602 0.257885
0.04074 -0.482125 -0.119925
-0.179029 0.162472 0.8702
0.138224 0.280997 -0.182659
0.303036 -0.031221 0.118492
-0.017513 -0.107366 -0.315079
-0.579901 -0.39006 -0.165109
0.165447 -0.164863 0.070256
-0.119485 0.000565 0.013501
-0.186768 0.134257 -0.004553
0.026267 -0.00093 0.103459
0.362085 -0.180238 0.765651
0.005873 -0.461888 0.157375
0.259718 0.156873 -0.151725
0.039251 -0.423139 0.173219
-0.37679 -0.408744 0.161993
0.645549 0.609119 0.346355
-0.058681 -0.000748 0.036724
-0.495912 -0.124575 -0.021558
0.027094 -0.176745 0.087206
-0.024405 -0.059737 -0.340637
0.696612 0.639266 0.39969
0.319028 0.645462 -0.50618
0.036216 -0.047802 0.033482
0.000681 -0.503966 0.035538
-0.736733 -0.611305 0.637165
0.114094 -0.314839 0.353003
-0.003613 -0.146345 -0.306767
-0.411806 -0.396717 0.196278
0.206354 -0.001751 -0.173959
0.024335 -0.79023 0.001908
-0.035629 -0.108296 0.028359
-0.431652 -0.419694 0.225932
0.071389 -0.312825 0.370095
0.062122 -0.248632 0.450461
-0.046114 -0.849248 -0.015644
-0.48907 0.122178 -0.041332
-0.344432 0.568236 0.089828
0.024568 0.112807 0.200683
0.004081 -0.615588 -0.006995
-0.047049 -0.411261 -0.047433
0.21859 -0.088705 0.07918
-0.064798 0.117341 0.685503
0.01021 -0.125511 0.042164
-0.193674 -0.548204 -0.073443
0.166784 0.105306 0.275505
-0.010614 0.402995 -0.686499
0.107283 -0.180306 -0.29726
0.127897 -0.241223 -0.418764
-0.348021 -0.029357 0.033208
0.179915 0.185977 -0.298736
-0.096921 -0.497679 0.007525
-0.472457 0.106782 -0.042249
0.778721 0.274678 0.236042
0.155813 0.596947 0.377066
0.016277 -0.24253 0.029027
-0.058735 -0.80553 0.040028
0.549412 0.160126 0.164265
-0.027675 -0.644947 -0.023739
0.039244 -0.244029 0.354609
-0.637007 -0.513152 0.451498
0.027112 -0.15404 0.078707
0.745364 0.268279 0.23096
-0.024261 -0.420631 0.045925
-0.226619 -0.410434 -0.01319
-0.051098 -0.629255 -0.028566
-0.321465 -0.256095 -0.013234
0.275124 -0.060349 0.377141
0.191714 -0.272877 0.280518
0.053794 -0.214014 0.422384
-0.044054 0.097491 -0.433816
-0.178244 0.131065 -0.003094
0.159108 -0.281424 -0.428027
0.60183 0.188406 0.16686
0.058558 -0.223902 0.529409
-0.439667 -0.41819 0.235868
0.166624 -0.274964 0.431882
0.088086 -0.242776 -0.116086
-0.315758 0.289589 -0.013629
-0.007427 -0.03825 -0.362536
-0.040546 -0.558501 0.048798
0.004998 -0.289784 0.387251
-0.072386 -0.274811 0.035727
0.009121 -0.327356 0.321857
-0.597401 -0.055283 -0.062008
0.107712 0.009946 0.19672
0.088319 -0.298487 0.3848
0.046005 -0.373988 -0.21361
-0.070892 -0.608346 -0.023167
-0.597234 -0.074249 -0.036493
-0.007879 -0.303111 0.059543
-0.498284 -0.451014 -0.165949
-0.113135 0.360114 -0.136562
-0.137043 0.134301 0.035228
-0.061909 -0.805829 0.030149
0.147431 0.284138 -0.554214
0.075744 -0.201017 0.413164
-0.357823 -0.507729 -0.130961
0.083761 -0.248619 0.469936
-0.021406 0.086624 0.613964
-0.133733 -0.511275 0.016185
0.061693 -0.221299 0.209958
-0.059795 0.273324 -0.587886
0.003845 -0.322421 0.231698
0.097714 -0.174003 -0.349834
-0.008918 0.081968 0.065009
-0.285284 0.069643 0.081379
-0.040845 -0.770398 -0.01941
-0.010512 -0.410544 -0.040833
0.29885 -0.033405 0.378622
0.324705 -0.035104 0.377902
0.275367 -0.194269 0.339736
-0.40648 -0.419471 0.194492
0.292895 0.256144 -0.136565
0.021515 -0.236915 0.035062
0.281401 -0.224972 0.59314
0.081152 -0.202421 -0.146901
0.106355 -0.067972 -0.634439
-0.027053 -0.802554 -0.02439
-0.397203 0.021381 0.016232
0.150505 0.122904 -0.151056
-0.234868 0.562196 -0.200785
0.01229 -0.426249 0.184966
0.153324 0.360372 -0.241162
0.227267 0.057115 -0.173051
0.029016 -0.311189 0.265595
0.391501 0.419863 0.290703
0.010954 -0.775037 -0.015059
0.045099 -0.477014 -0.113992
0.067052 -0.189608 0.419343
-0.087719 0.139695 0.741674
-0.202774 -0.58577 -0.07754
-0.424136 -0.488864 -0.117519
-0.194534 -0.441642 0.078893
-0.264631 0.352369 0.040152
-0.118574 0.113384 0.040257
0.026458 -0.000507 0.486461
-0.061414 -0.792145 0.007242
-0.349799 0.302403 0.032552
-0.058984 -0.5582 -0.009825
-0.624623 -0.360379 -0.167732
-0.023217 -0.359543 0.003754
0.356305 0.331847 -0.129306
0.034226 -0.328364 0.103309
0.083631 -0.196087 0.429888
-0.496204 0.127687 -0.055014
0.237077 -0.070385 0.359957
0.228367 0.528022 -0.064755
-0.107247 0.115416 0.009387
-0.414041 -0.420067 0.199583
0.028622 -0.312714 0.100507
0.024795 -0.351342 0.087604
0.473864 0.183825 0.226676
0.080178 -0.186637 0.246521
0.219276 -0.25462 0.286684
-0.041143 -0.46145 0.046509
-0.538761 -0.427036 0.30034
0.038186 -0.400003 -0.158231
-0.047177 -0.443603 0.010003
0.055331 -0.12693 0.127485
0.018261 -0.107647 0.073771
0.406084 0.078982 0.137686
-0.193803 -0.13642 0.029049
-0.662152 0.030134 -0.15916
-0.539271 -0.439832 0.303747
0.072399 -0.167776 0.749549
-0.223316 -0.052676 0.049064
-0.172457 -0.148725 0.050202
0.364133 0.007996 0.377763
-0.336866 -0.399769 0.166382
-0.188315 -0.153553 0.028227
0.088811 -0.344497 0.274387
0.198339 -0.293346 0.274451
0.680929 0.628003 0.380897
0.094114 -0.149906 0.489305
0.244199 -0.260672 0.302668
0.451479 0.14673 0.191713
0.409083 0.019636 0.382059
-0.256322 -0.103034 0.047687
0.598329 -0.137386 0.457814
-0.052917 -0.850837 -0.009098
0.06993 -0.221055 -0.111335
