0.677097 -0.040545 0.324039
0.360882 -0.590351 0.121542
0.294799 0.325970 -0.417866
0.105698 -0.537560 0.236572
-0.035522 -0.663753 0.126676
-0.408357 -0.118527 0.081589
-0.192501 0.304786 -0.203506
-0.082771 -0.869945 0.169538
0.324391 -0.563598 0.133373
-0.029650 -0.429109 0.110807
-0.014440 -0.017852 0.133722
0.353518 -0.278990 0.323091
-0.041946 -0.057815 0.180338
-0.211248 -0.566008 0.212119
-0.345685 -0.457352 0.209076
-0.084572 -0.904497 0.169937
0.019208 -0.510038 0.208461
-0.367829 0.121179 -0.216693
-0.064497 -0.067245 0.049412
0.079377 0.008236 -0.247382
-0.069969 -0.889712 0.124494
-0.021937 -0.458612 0.138325
0.005929 -0.395799 0.132294
-0.124285 -0.188188 0.003892
0.100843 -0.194662 0.276129
-0.024885 -0.242204 0.007655
-0.008404 -0.394199 0.218933
-0.191703 0.344897 -0.227213
0.007136 -0.208517 -0.065213
0.554521 -0.468441 0.170536
0.031168 -0.146041 -0.100803
-0.022690 -0.868399 0.215196
-0.210842 -0.243980 -0.225228
-0.314785 -0.474396 0.208611
-0.031463 -0.428730 0.178470
-0.075835 -0.978604 0.133079
-0.235035 0.438225 -0.259115
0.192354 -0.454504 0.307614
-0.121547 0.724437 0.345189
-0.075559 -0.842928 0.185089
-0.603329 -0.100731 -0.340087
-0.599027 0.822951 0.137300
-0.003964 -0.504600 0.219242
-0.566520 -0.104457 -0.333476
-0.102429 0.050906 -0.011965
0.004990 0.346254 0.086398
-0.308493 0.273693 0.359146
-0.108848 -0.533285 0.131338
0.420261 -0.548129 0.158732
-0.316242 0.260327 0.043812
0.726675 -0.393555 0.154638
0.344482 0.375086 -0.430221
0.108234 0.223060 -0.070406
-0.212059 -0.352418 0.064237
-0.091632 0.085954 0.106816
0.365061 -0.287705 0.295503
0.120214 -0.649988 0.163887
-0.493619 -0.289200 0.187232
-0.191000 -0.359950 -0.075818
-0.315479 -0.216090 0.053557
0.639227 0.288591 0.606347
-0.183882 -0.238598 -0.214954
-0.057963 0.106260 0.038466
-0.042732 -0.773276 0.118222
-0.015396 -0.376409 0.101548
0.079029 0.061193 -0.277810
-0.070845 -0.691682 0.192382
0.260066 -0.634325 0.139271
0.098320 -0.672717 0.123321
-0.276107 0.251676 0.049429
-0.080839 0.148901 -0.008898
-0.025397 -0.741420 0.117599
-0.725120 -0.113484 0.185956
-0.091992 0.006356 0.027061
-0.450206 -0.364086 0.165905
-0.003317 -0.705654 0.207936
-0.757711 -0.091879 0.191027
-0.218454 0.203403 0.082178
0.115008 0.239666 -0.076889
-0.068033 -0.456187 0.117563
-0.058587 -0.087742 0.061271
0.056363 0.080989 -0.021170
-0.041601 -0.377781 0.087639
-0.260217 0.539174 -0.290277
-0.066442 -0.747088 0.195681
0.246670 -0.070292 0.345109
-0.300495 -0.232550 0.055784
-0.056056 0.122676 0.105511
0.028954 -0.467504 0.196695
-0.083489 -0.502644 0.113093
0.018356 -0.495253 0.210802
-0.082752 0.029743 0.209561
-0.254576 -0.538926 0.216165
-0.134612 -0.480649 0.061535
-0.275776 -0.557718 0.182202
-0.172417 -0.397531 -0.041493
-0.127938 -0.193914 -0.466801
0.013563 -0.983668 0.133794
0.037946 -0.285699 0.220852
-0.065717 -0.996601 0.204555
-0.105248 -0.477824 0.109415
0.459201 -0.534481 0.133411
-0.009532 0.481600 0.024529
-0.067722 0.456282 -0.018185
-0.115740 -0.535239 0.095741
0.003629 -0.907238 0.121979
-0.192210 -0.221983 -0.297556
-0.058114 -0.825311 0.122901
0.025244 0.031931 -0.018686
-0.177853 -0.343242 -0.091252
-0.026190 -0.359294 0.185071
0.312971 0.602934 0.202409
-0.611099 0.831217 0.139726
-0.268430 -0.504305 0.197218
0.489122 0.180328 0.531860
-0.375120 -0.418547 0.185529
-0.171251 0.134556 0.274774
-0.103329 0.503392 0.207255
-0.229916 0.434893 -0.253502
-0.159237 0.256148 -0.166258
0.026610 -0.269931 0.185903
0.191817 -0.420085 0.314237
-0.349687 -0.225193 -0.204943
0.349820 0.009120 0.387955
0.217510 -0.611833 0.108640
0.462261 -0.194649 0.338870
0.001558 0.103143 0.139359
0.021046 -0.523656 0.159484
0.295879 -0.573683 0.119437
0.506048 -0.472795 0.158283
0.015857 -0.783043 0.190656
-0.175608 0.166255 0.089905
0.233579 -0.386417 0.281545
-0.043849 0.153738 0.058699
-0.430151 0.199426 -0.234924
0.014814 -0.586675 0.145577
-0.007314 -0.105185 0.007442
0.018599 -0.692292 0.162080
0.144635 0.138695 -0.325663
-0.186821 -0.246964 -0.188314
-0.220318 -0.560274 0.177394
-0.247386 -0.525693 0.188191
-0.442067 -0.355880 0.171322
0.423473 -0.517275 0.138067
0.014419 -0.029894 -0.027022
-0.165864 -0.446375 0.108212
-0.199840 -0.105671 -0.075766
-0.424090 0.490726 0.471677
-0.162413 -0.226074 -0.354312
-0.166936 -0.328494 -0.085396
-0.573995 0.057766 0.195888
-0.014190 -0.277001 0.001322
-0.389663 -0.449237 0.174194
-0.697616 -0.119174 0.180780
-0.048935 -0.689934 0.130779
0.018661 0.017949 -0.020432
-0.004981 -0.680779 0.124572
0.027767 -0.572351 0.234873
0.085256 -0.237991 0.243923
0.001910 -0.628120 0.221384
0.559001 -0.477968 0.149410
-0.075028 -0.748309 0.191016
-0.228739 -0.599794 0.176292
0.501723 -0.502621 0.132847
-0.210872 -0.593256 0.220838
0.020772 -0.176520 -0.080287
-0.168164 0.158307 0.093325
0.220414 -0.604006 0.127448
-0.221707 0.211386 0.081049
-0.181511 0.283333 -0.173478
-0.054493 -0.477109 0.154476
0.286616 0.717359 0.154154
-0.065571 0.000419 0.186054
-0.502124 0.742119 0.126626
0.543598 0.852091 0.206855
-0.078664 -0.299452 0.063503
0.153172 -0.500961 0.264134
0.737445 -0.000517 0.311521
-0.102602 -0.261009 0.023990
0.560792 0.237511 0.577518
-0.264101 -0.568543 0.180415
0.247500 -0.380482 0.283351
0.323519 -0.000908 0.390284
0.076580 0.164975 -0.049141
-0.106533 0.036866 0.000076
-0.131457 0.141220 -0.074653
-0.105267 -0.643949 0.186168
-0.058215 -0.538695 0.116963
-0.028372 -0.342510 0.077368
-0.243082 0.218809 0.069835
-0.372976 -0.186662 -0.228759
-0.005844 -0.199439 -0.029123
0.408332 0.436862 -0.481506
-0.108148 0.029320 0.003917
-0.197339 -0.244868 -0.259973
-0.630565 0.090775 0.251523
-0.041697 -0.661203 0.202313
-0.040886 -0.397369 0.105454
-0.065647 -0.598027 0.111221
0.124885 0.099469 -0.309372
-0.072487 0.502844 -0.262830
0.241377 0.274626 -0.397506
-0.038359 0.046256 0.114748
-0.032003 -0.429118 0.124399
0.732270 -0.395219 0.174182
-0.571242 -0.229106 0.207389
0.003435 -0.072304 0.005080
-0.005115 -0.987830 0.116054
-0.234397 0.433581 -0.356583
0.731085 -0.005204 0.306504
-0.091983 -0.273837 0.017394
0.318803 0.500785 0.190276
0.507259 -0.468275 0.151646
-0.073529 -0.802895 0.149899
-0.244027 -0.544787 0.173834
-0.025684 -0.331468 0.093268
0.445094 -0.546660 0.137478
-0.299991 0.261717 0.042558
-0.562432 0.060452 0.180008
-0.280147 0.114306 -0.312305
0.128510 0.142746 -0.328589
-0.336211 -0.229580 -0.201482
-0.058422 -0.834771 0.122127
0.130112 -0.167117 0.291418
-0.052349 -0.132295 0.093495
-0.307679 -0.239634 0.079679
0.004049 0.250538 0.126234
0.375300 0.043293 0.439366
0.210624 -0.439740 0.308342
0.183290 -0.446137 0.270147
-0.028572 -0.088441 0.147911
-0.119287 0.205311 -0.085919
-0.345042 0.098143 -0.197289
-0.142548 -0.207806 -0.460317
-0.191070 -0.318965 -0.130194
-0.095631 0.353130 0.048349
0.278851 0.530664 0.166421
0.003257 0.132099 0.136168
-0.156120 -0.619916 0.213071
-0.445529 0.558526 0.496296
-0.139259 0.063133 0.234706
-0.331881 -0.203909 0.052793
-0.193676 -0.372165 -0.017261
-0.075054 -0.515824 0.100552
-0.662744 -0.159669 0.197853
0.292979 -0.053612 0.359149
0.246916 0.268463 -0.387206
0.020641 -0.946396 0.149768
-0.027137 -0.370731 0.113262
0.142416 -0.493539 0.255032
-0.112700 -0.247313 0.007829
0.427585 -0.229551 0.333857
-0.227493 -0.343797 -0.075073
-0.070034 -0.729910 0.138154
-0.049002 -0.445103 0.144871
0.154596 0.447528 0.171401
0.022833 -0.816188 0.153641
0.008002 -0.963003 0.200641
0.447958 0.112999 0.506271
0.206113 0.209955 -0.372635
-0.015321 -0.346688 0.122134
-0.339251 0.323132 0.384344
-0.035533 -0.043517 0.177468
-0.249106 -0.336906 0.083784
0.347781 0.016370 0.392652
0.007436 -0.276313 0.021565
-0.071409 -0.440627 0.122098
-0.277578 0.129574 -0.316475
-0.037099 -0.260911 0.037456
-0.037086 -0.138689 -0.007123
0.154039 0.519676 -0.205682
-0.330616 -0.228421 -0.169334
0.008508 0.340497 -0.066969
-0.318587 -0.512970 0.203844
0.109017 0.256823 -0.094479
-0.117597 -0.195138 -0.012926
-0.161277 -0.222527 -0.373462
-0.090687 -0.305328 0.041041
-0.396029 -0.133270 0.070669
-0.027466 -0.971567 0.216913
-0.073778 -0.810705 0.146593
-0.051423 0.066400 0.112240
-0.263342 -0.277429 -0.121282
0.013755 0.007854 -0.016985
-0.022228 -0.259471 0.027855
-0.067634 0.096181 0.042120
-0.261187 -0.006798 -0.137077
-0.089409 -0.201472 -0.599900
-0.270791 -0.308585 -0.109636
0.009043 -0.349766 0.105724
-0.163255 -0.358099 -0.048223
-0.250488 0.002451 -0.474517
-0.054788 -0.976265 0.211841
-0.013231 -0.519883 0.138312
-0.011401 -0.029742 0.138834
0.455503 0.145899 0.516075
-0.612143 -0.200832 0.190449
0.026599 -0.543683 0.189674
-0.433857 -0.162453 -0.268340
0.270345 -0.588446 0.139877
-0.187515 -0.353590 -0.081110
-0.150042 -0.434619 0.046785
0.454381 -0.226256 0.327504
0.697000 0.365332 0.658138
0.014189 -0.901086 0.134858
-0.315612 -0.250120 0.055650
-0.028351 -0.280902 0.022688
-0.227255 -0.566607 0.218676
0.228610 -0.379558 0.285660
-0.185269 0.142665 0.284417
-0.158675 -0.427371 0.074604
-0.465600 0.612724 0.519044
0.006416 -0.522198 0.215706
-0.420395 0.170406 -0.225769
0.208702 -0.616703 0.145045
-0.058690 -0.196096 -0.662075
0.083826 -0.233511 0.252531
-0.133006 -0.686082 0.159935
-0.001523 -0.150619 -0.095888
-0.255484 0.231672 0.327233
-0.127873 -0.465807 0.031115
-0.089807 0.223410 0.092388
0.156195 0.763929 -0.095907
-0.084994 0.380908 0.165944
-0.007862 -0.259706 -0.014563
-0.074913 -0.017278 0.040889
-0.029157 -0.108389 0.159908
-0.005675 -0.471053 0.221516
0.324155 -0.322825 0.308470
-0.735074 0.155652 0.334478
-0.077420 -0.962053 0.190602
-0.067915 -0.401839 0.070102
0.007672 -0.217725 0.151445
-0.070216 -0.569792 0.151431
0.349674 -0.288322 0.321158
0.395431 -0.549506 0.117324
-0.187520 -0.386662 -0.049998
0.024740 0.279557 0.137100
-0.291580 -0.484321 0.185270
-0.309406 -0.267617 -0.159930
0.004392 -0.270907 0.033628
-0.362521 -0.478967 0.185665
0.039709 -0.125580 -0.141411
-0.199821 -0.420146 0.092669
0.277697 -0.586135 0.111163
0.617986 0.270125 0.608522
-0.133650 -0.461542 0.112547
-0.144153 -0.472475 0.052298
-0.061062 -0.753302 0.198483
-0.049363 -0.053546 0.179915
-0.082944 -0.591336 0.118369
0.116564 -0.672816 0.174984
-0.135527 -0.496512 0.084067
0.274243 -0.591684 0.105238
0.338881 -0.288474 0.321124
0.415936 0.093274 0.485479
-0.045516 0.074879 0.067943
0.231355 -0.092735 0.307393
-0.650294 -0.166383 0.201117
-0.051947 -0.267167 0.052235
-0.183471 -0.130921 -0.039285
-0.015061 -0.560160 0.214770
-0.069227 -0.970457 0.123880
0.385663 -0.236206 0.309765
0.436835 0.095495 0.487481
-0.160462 0.211056 -0.141731
0.382827 -0.582141 0.132070
-0.102831 0.307353 0.068584
0.452236 -0.541737 0.137310
-0.028780 -0.166586 0.021669
0.020367 -0.478393 0.162853
0.606156 -0.448601 0.176640
0.100536 -0.681136 0.120363
0.242306 -0.404363 0.292752
0.005303 0.330093 0.084742
-0.036872 -0.443578 0.096832
-0.010769 -0.355783 0.135372
-0.043073 -0.579572 0.113826
0.137335 0.446857 -0.072581
-0.158666 0.266025 -0.164513
0.016317 -0.828935 0.189042
-0.431375 -0.167823 -0.253930
-0.206512 -0.623744 0.181688
-0.169055 -0.163495 -0.030597
-0.368348 -0.437613 0.171929
0.336220 -0.574550 0.106397
-0.024018 -0.151347 0.137881
-0.167449 -0.336412 -0.083526
0.284227 0.659262 -0.181382
-0.069067 -0.202827 -0.650709
-0.130574 -0.222882 -0.002516
-0.022840 -0.590267 0.213120
-0.387871 -0.458955 0.191415
-0.100247 -0.235569 0.029348
-0.168399 -0.459295 0.090097
0.228022 -0.426506 0.296461
0.052978 0.244638 0.156829
-0.005391 -0.171166 -0.062526
-0.012026 -0.167536 0.183863
-0.041913 -0.142977 0.098669
0.581659 0.239748 0.593765
-0.053577 -0.588427 0.108185
-0.121553 -0.699825 0.159244
0.037195 -0.757925 0.173723
-0.147626 -0.209335 -0.437540
-0.593024 -0.199126 0.205988
-0.420557 -0.401077 0.204631
-0.193083 0.141187 0.280963
-0.125316 -0.227117 0.012370
0.570924 -0.443562 0.154469
-0.093500 -0.028453 0.043438
-0.018530 -0.709600 0.119733
-0.183381 -0.210548 -0.337564
0.092751 -0.559986 0.231856
0.296303 0.324497 -0.409542
0.036473 0.302090 0.142343
-0.420853 -0.092709 0.096461
-0.047881 0.021262 0.123375
-0.221729 -0.615247 0.194516
0.153983 0.409248 -0.168919
0.183144 -0.621979 0.144229
0.071183 0.379126 -0.051059
-0.020822 -0.217698 0.164485
-0.411202 -0.387450 0.197843
-0.014507 -0.921663 0.111687
0.359894 -0.272811 0.323297
0.188775 0.213038 -0.370038
-0.238410 -0.534413 0.201959
0.002922 -0.149815 -0.083996
-0.023445 -0.109957 -0.020578
-0.871380 0.423552 0.047353
-0.203825 -0.270809 -0.200032
-0.301548 -0.528342 0.209025
-0.177015 -0.206352 -0.346210
-0.016726 -0.159198 0.153936
-0.391463 0.400514 0.421899
0.569999 0.239316 0.578030
-0.036420 -0.639581 0.205675
0.529296 -0.151768 0.335629
0.282191 -0.048667 0.364302
0.025752 -0.632240 0.159059
0.744583 -0.397987 0.163184
-0.433086 -0.066222 0.084370
-0.104433 -0.473398 0.101057
-0.002771 -0.236239 0.199906
0.016689 -0.181081 -0.060619
-0.308824 0.047415 -0.166559
0.297979 -0.338629 0.315769
0.094148 0.188390 -0.056865
-0.091174 -0.702431 0.143532
-0.423544 -0.170444 -0.257641
-0.843494 -0.042399 0.189798
-0.567830 0.066412 0.180581
-0.060478 -0.262910 0.023259
-0.624369 -0.192997 0.197794
0.241708 -0.090065 0.312874
-0.071304 -0.024476 0.042417
0.422141 -0.545865 0.122718
-0.287569 -0.292112 -0.128534
0.197961 -0.402588 0.284227
-0.066256 0.123712 0.006762
-0.043183 -0.696641 0.202966
-0.419619 -0.104034 0.082177
0.179177 -0.671679 0.149462
-0.490118 -0.295965 0.191280
-0.184365 0.286727 -0.186752
-0.339095 -0.179165 0.074235
-0.060308 -0.335026 0.039704
0.524695 -0.146577 0.357906
-0.066178 -0.036105 0.045066
-0.016329 -0.362698 0.171645
0.265564 -0.336333 0.311712
-0.004814 -0.135288 -0.012060
-0.215355 0.391950 0.073900
-0.061203 -0.652598 0.167968
0.092648 -0.700343 0.125715
0.313066 -0.037542 0.371095
0.008692 -0.240319 -0.008162
-0.108451 -0.645159 0.193966
-0.099681 0.324115 0.061101
-0.696104 -0.134980 0.186268
0.410913 -0.552685 0.157552
-0.397471 0.562603 -0.548932
-0.042458 -0.283943 0.028565
-0.206880 -0.369723 -0.055388
0.031497 -0.332254 0.196313
0.726176 -0.007756 0.317855
0.438147 0.502671 0.179720
-0.306797 -0.265601 0.064685
-0.512343 0.004991 0.130472
-0.081718 -0.860961 0.156548
-0.115284 -0.464301 0.082607
-0.307208 -0.268247 -0.138717
-0.322484 0.071085 -0.182231
-0.127294 0.051820 0.224254
-0.428840 -0.166771 -0.262513
-0.275552 0.158429 -0.361933
-0.653182 -0.165108 0.185386
-0.026962 -0.459691 0.148402
-0.237013 -0.347479 0.060745
-0.208521 0.382748 -0.241240
-0.054389 -0.413800 0.075055
0.082964 -0.537843 0.278843
-0.085952 0.151868 -0.031276
0.383844 -0.556771 0.156166
0.077715 0.041895 -0.252668
-0.413632 0.305575 0.020223
-0.277125 0.594677 -0.317637
0.601759 -0.457993 0.168483
0.622763 -0.087782 0.341558
-0.237335 0.467252 -0.269665
0.054915 -0.274744 0.210764
0.155120 0.440588 -0.173620
-0.134167 -0.472765 0.065069
0.496575 -0.503962 0.160606
0.039600 -0.115568 -0.154701
0.271133 -0.379592 0.299127
-0.162239 -0.206732 -0.348874
-0.343902 -0.491082 0.202999
0.449988 -0.205441 0.336954
-0.066298 -0.895172 0.204111
-0.022763 -0.255732 -0.011436
-0.524744 -0.103925 -0.343673
-0.435288 -0.402913 0.197112
0.027698 -0.136803 -0.099074
-0.008909 -0.041289 0.142032
-0.326441 -0.507931 0.200062
-0.054583 -0.072043 0.061420
-0.181427 -0.398474 -0.037777
-0.007699 -0.151011 -0.007627
-0.014426 -0.408686 0.217548
-0.216446 -0.567392 0.175327
-0.041288 -0.008121 0.137090
-0.274436 0.113650 -0.296621
-0.012314 -0.266066 0.039803
0.013459 -0.319158 0.217430
0.061777 0.122832 -0.050917
-0.018048 -0.583510 0.215166
0.437383 0.119087 0.490643
-0.223584 0.402993 -0.250226
-0.011837 -0.052257 0.133509
-0.496141 -0.311656 0.202061
-0.585163 0.065478 0.208371
-0.357833 0.460984 -0.424463
-0.500135 -0.117709 -0.316959
0.814131 -0.356306 0.160992
0.054225 0.251954 0.159939
-0.247455 -0.030666 -0.445408
0.378075 -0.242940 0.305335
0.057622 0.256107 0.150983
-0.042852 -0.848779 0.212970
0.001286 0.758759 -0.127157
-0.241460 -0.298235 -0.090274
-0.179655 -0.227893 -0.261663
-0.580484 -0.068124 -0.423025
-0.354859 -0.154606 0.065424
0.019630 -0.863018 0.142585
0.701968 0.373469 0.667630
0.181585 -0.136751 0.316139
-0.387441 0.389916 0.426500
0.464890 0.777713 0.251349
0.016403 -0.532486 0.153029
0.437650 -0.514468 0.129268
0.040470 -0.750985 0.176681
-0.075215 -0.884895 0.193458
-0.153789 -0.181849 -0.028766
0.534602 -0.458028 0.149982
0.022417 -0.986634 0.167395
-0.560564 0.056573 0.187323
-0.186067 -0.268166 -0.204171
-0.020150 -0.360531 0.084504
0.357917 -0.547483 0.135200
-0.353944 0.341813 0.383715
-0.014688 -0.760876 0.116906
0.161597 -0.139390 0.284642
0.007682 -0.242134 0.156846
-0.090692 -0.507239 0.125925
-0.045832 -0.296471 0.045412
0.357655 -0.294558 0.314276
-0.174732 -0.132124 -0.031729
0.107215 -0.215477 0.256308
-0.019768 -0.403580 0.213618
0.449981 0.127364 0.516029
-0.214626 0.370296 -0.250710
-0.385269 -0.456547 0.199574
-0.022043 -0.170630 0.165162
0.038338 -0.051551 -0.177613
-0.019764 -0.545175 0.138925
-0.025757 -0.112689 0.168424
-0.084107 0.001266 0.194542
0.373532 0.400947 -0.456599
0.390247 -0.534063 0.141956
-0.049279 -0.927450 0.214101
0.329714 -0.605542 0.133134
-0.270661 0.011295 -0.144135
0.594187 -0.457485 0.173100
0.010441 -0.373213 0.121407
0.051301 -0.011786 -0.208453
0.258502 -0.380742 0.285666
-0.300426 -0.255440 -0.135716
0.085544 -0.222735 0.227528
-0.233192 0.260166 -0.499898
0.218917 0.453410 0.166252
0.638906 -0.077843 0.340470
0.218500 -0.645619 0.149040
-0.004955 -0.571186 0.213602
-0.385324 -0.407260 0.187904
0.012950 -0.301715 0.216816
0.049549 -0.575194 0.202994
-0.250618 0.340094 -0.255988
-0.016769 -0.601535 0.127590
-0.236539 -0.594735 0.179114
0.619505 -0.072644 0.399535
-0.051108 0.056499 0.116785
0.014219 -0.453504 0.161592
0.318866 -0.609457 0.134835
-0.050842 -0.468518 0.155541
-0.428160 -0.400610 0.201912
-0.013489 -0.565352 0.138850
-0.068926 0.249560 0.143300
0.114720 -0.176381 0.281986
-0.571205 0.079632 0.174825
-0.275195 -0.287408 -0.103644
0.005195 -0.301484 0.214230
-0.326495 -0.244412 -0.159535
-0.025028 -0.840697 0.214695
0.031616 0.940729 -0.264146
-0.326618 0.066545 -0.176471
-0.401009 0.163218 -0.217552
0.390228 -0.270181 0.314458
-0.062521 -0.615559 0.161772
-0.245059 0.472260 -0.270310
0.166024 0.430276 0.172558
-0.057192 -0.805373 0.201688
0.837117 -0.337214 0.144779
0.006696 -0.330394 0.162732
-0.119536 -0.443551 0.064436
0.421694 -0.222178 0.330956
0.060431 0.087425 -0.046964
-0.435831 0.193337 -0.235198
-0.132154 0.136306 -0.084844
0.011693 -0.682857 0.199557
-0.609012 -0.059952 -0.450058
-0.203755 -0.375117 0.065566
0.134266 -0.665647 0.114130
-0.029844 -0.472086 0.160382
-0.330073 -0.452502 0.187988
-0.346023 0.084370 -0.203913
-0.020322 -0.084483 -0.002334
-0.528122 -0.109189 -0.331941
-0.263832 -0.307956 0.080733
0.430065 -0.513229 0.146550
0.112357 0.104078 -0.297743
-0.277327 0.242612 0.347293
0.247536 -0.644378 0.132653
0.169188 -0.473670 0.266440
-0.021991 -0.678792 0.209865
-0.037926 -0.584160 0.119604
0.096413 -0.659436 0.161131
-0.350934 -0.449237 0.172717
-0.019970 -0.268001 0.173327
-0.122916 0.060315 -0.028579
-0.369872 0.105986 -0.211657
-0.731688 0.395941 0.039767
0.633554 -0.428929 0.177964
0.000811 -0.577474 0.137781
-0.053149 -0.308467 0.058513
0.025832 -0.518931 0.167192
-0.279069 -0.507872 0.211953
-0.011542 -0.058167 -0.008561
-0.020080 -0.183306 0.155536
-0.483402 -0.142968 -0.289090
-0.065202 -0.536265 0.104179
-0.169709 -0.428400 0.011889
0.027828 -0.310810 0.179650
0.009374 -0.334735 0.081190
0.013064 -0.350910 0.164732
0.032970 -0.762201 0.180759
0.080813 -0.664502 0.154480
0.465329 -0.534746 0.143743
-0.009310 -0.714105 0.209211
0.030394 -0.643289 0.170820
0.612926 0.491954 0.168582
0.013631 -0.205585 -0.059865
-0.313743 0.043237 -0.184336
0.004252 -0.150372 -0.113813
0.191760 -0.634580 0.105972
0.289424 -0.619097 0.141519
-0.038168 0.176751 0.038635
-0.236465 0.558132 -0.690869
0.242908 0.259323 -0.392597
-0.021305 -0.107608 0.173389
-0.150065 -0.141585 -0.038126
0.116166 -0.491342 0.291254
-0.338399 -0.176728 0.065330
-0.095047 0.654745 -0.275680
-0.035708 -0.005108 0.121735
-0.212369 -0.342719 -0.052445
0.369714 -0.547018 0.147252
-0.023644 -0.229641 -0.023800
0.417791 -0.564007 0.136916
0.018078 -0.194980 0.164838
0.488402 -0.477770 0.148151
-0.231956 -0.309557 0.068032
-0.176355 -0.418648 0.004064
0.580888 -0.468862 0.155719
-0.143539 0.094754 0.252941
-0.119775 0.046196 -0.023934
-0.079047 -0.694551 0.196314
-0.198946 -0.283267 -0.183100
-0.052486 -0.329173 0.044974
-0.174736 0.282597 -0.168897
-0.267615 -0.570964 0.189499
-0.337775 0.270076 0.036889
-0.123164 -0.218352 0.017240
-0.423104 -0.085397 0.099508
-0.255553 -0.553848 0.170548
-0.078867 -0.764768 0.167198
-0.023384 -0.355760 0.177571
0.044617 -0.269096 0.232997
0.347034 -0.592065 0.144630
-0.010495 -0.212894 0.192243
-0.060502 -0.290304 0.022072
0.506354 -0.158819 0.335374
0.028716 -0.354739 0.197000
-0.006506 0.496620 0.015707
-0.456787 -0.048985 0.093652
0.005764 -0.327577 0.217812
-0.281627 0.086251 -0.262935
-0.203013 -0.290282 -0.168755
-0.041510 -0.428438 0.087546
-0.094337 -0.739413 0.168154
0.044577 -0.098723 -0.136908
-0.484800 -0.326132 0.168645
-0.259282 -0.516906 0.183211
0.088516 -0.209714 0.232415
0.135321 0.129895 -0.316294
-0.084629 -0.362340 0.063023
-0.190166 -0.236843 -0.204808
-0.217016 0.376555 -0.277936
0.786250 -0.357866 0.160201
-0.146938 -0.387724 -0.016483
-0.296398 -0.478647 0.189118
-0.254904 0.532702 -0.293896
0.619330 -0.448317 0.157318
-0.004592 -0.519180 0.141828
-0.077207 -0.581914 0.106019
0.364764 -0.250539 0.308424
-0.081979 -0.308022 0.067035
-0.316435 -0.239521 -0.185078
-0.417371 0.466021 0.456652
-0.492757 -0.000098 0.135808
-0.009789 -0.849180 0.114121
0.019328 -0.431440 0.214000
-0.537964 0.041020 0.167692
-0.103854 -0.001857 0.014391
-0.054702 -0.598101 0.175526
-0.029404 -0.622295 0.122504
0.443817 0.114220 0.489816
-0.006662 -0.150058 0.003894
0.009821 -0.404190 0.218965
0.379573 -0.257334 0.324976
-0.345492 -0.178684 0.056630
-0.161284 0.101669 0.246647
-0.654698 -0.157691 0.201778
0.262517 -0.590025 0.136008
-0.052628 -0.693634 0.167337
-0.129248 -0.694111 0.193046
0.171193 -0.488926 0.289011
-0.042027 -0.211965 -0.711589
0.034092 -0.701077 0.138980
0.573905 0.486506 0.168289
-0.238248 -0.119642 -0.368733
0.368675 -0.284121 0.318557
-0.078885 -0.001806 0.188359
0.001657 -0.847630 0.204903
-0.074948 -0.770785 0.171637
0.252163 -0.369324 0.320815
0.630831 -0.083281 0.341260
-0.007139 -0.839014 0.210692
-0.238029 -0.104662 -0.374561
0.508934 -0.179483 0.328699
-0.065305 -0.265083 0.016663
0.146751 0.161189 -0.349084
0.550507 -0.479367 0.143018
-0.016894 -0.114370 0.175056
0.522962 0.209184 0.553343
-0.173183 -0.448714 0.080121
-0.074053 -0.814198 0.180126
0.083714 0.018251 -0.256652
0.036602 -0.568269 0.245653
0.088387 0.197600 -0.059147
-0.073635 -0.768907 0.180618
-0.005158 -0.343288 0.217061
0.634678 -0.049054 0.426356
-0.015054 -0.145135 0.178163
-0.019467 -0.967805 0.215313
-0.205574 -0.283405 -0.172105
-0.006596 -0.322243 0.093650
-0.269653 0.052750 -0.212771
0.021653 -0.881532 0.171824
-0.207493 -0.287229 -0.147533
-0.224437 -0.316171 -0.098642
0.156293 -0.680010 0.157984
-0.090512 0.028344 0.001765
0.038849 0.063096 -0.030110
-0.021637 -0.279760 0.186752
-0.125567 -0.230106 0.003584
0.021316 0.272330 0.135712
0.200771 0.428736 0.164154
0.374483 -0.540883 0.139186
0.429359 -0.212592 0.313019
-0.496962 0.745131 0.599913
0.413921 0.093311 0.469312
-0.187257 -0.263750 -0.211357
-0.198805 -0.394432 0.066901
0.309699 -0.030981 0.378510
-0.183430 -0.382751 -0.055755
0.077110 0.149822 -0.042729
-0.332205 -0.215319 -0.197851
0.153084 -0.142274 0.286154
0.142532 -0.519967 0.270205
-0.019161 -0.491428 0.129255
-0.064864 -0.805970 0.132058
0.399500 -0.242301 0.297641
-0.223493 0.582617 -0.767393
0.019534 -0.669721 0.195524
-0.233443 -0.324350 0.057622
0.534874 -0.486570 0.139990
-0.364720 -0.464801 0.172684
-0.282279 0.113164 -0.299917
0.060938 -0.047514 -0.203939
-0.032150 -0.964063 0.217549
-0.239841 0.197486 0.316319
0.576551 -0.459131 0.145278
-0.027875 -0.047085 0.149706
-0.015368 -0.892762 0.214479
-0.140324 -0.678232 0.161743
0.003848 0.362578 0.070720
-0.116901 0.671395 0.305024
0.009957 -0.363827 0.122431
-0.219212 -0.610363 0.211285
-0.141813 0.232484 -0.132768
0.217542 -0.406256 0.320835
-0.027273 -0.290140 0.025421
-0.522922 0.811950 0.650268
-0.139690 0.167069 -0.103661
-0.161498 0.092303 0.257058
0.024201 -0.231335 0.179465
-0.513263 -0.110773 -0.338567
0.345303 -0.558837 0.144985
-0.121486 -0.662977 0.153241
-0.040834 -0.762956 0.208524
-0.115726 -0.525711 0.084995
-0.050719 -0.236783 0.041425
-0.120658 -0.204942 -0.506551
0.697394 -0.396932 0.164240
0.003458 0.283149 -0.020194
-0.115395 -0.205000 -0.527239
0.120396 -0.202086 0.255150
-0.037772 -0.694176 0.124946
-0.081840 -0.357312 0.055339
-0.139602 -0.209341 -0.427102
-0.002785 -0.967592 0.117620
-0.033989 -0.457518 0.177639
-0.140146 0.065462 0.242815
-0.073174 0.144064 -0.013222
0.028742 -0.608472 0.239131
-0.136745 0.229914 -0.119423
0.283780 -0.588190 0.105181
-0.013743 -0.901447 0.214156
-0.001949 -0.953353 0.207866
0.027338 -0.524866 0.190608
-0.184187 -0.350513 -0.035488
-0.264167 -0.548477 0.171238
-0.119627 0.055186 0.238666
-0.155296 -0.218538 -0.364241
0.704965 0.363842 0.663376
0.320977 -0.323130 0.290276
-0.004957 -0.948093 0.116160
0.002091 -0.346853 0.162959
-0.074702 0.129166 -0.006019
-0.147061 0.097279 0.244969
-0.074761 0.532441 -0.099651
-0.113012 0.725836 -0.421957
0.166895 -0.662044 0.161742
-0.242680 0.439373 -0.388495
-0.137320 -0.193239 -0.431563
-0.336080 -0.240033 -0.187697
-0.365662 -0.189015 -0.216035
-0.053006 -0.506458 0.156603
-0.942673 0.438569 0.039369
-0.085991 -0.054728 0.051918
0.353782 0.378084 -0.438755
-0.007389 -0.259425 0.159423
0.002621 -0.934909 0.121266
-0.018243 -0.293086 0.062993
-0.383874 0.133276 -0.207932
0.048711 -0.552499 0.223029
0.024465 -0.596651 0.158209
-0.450168 -0.064617 0.098613
-0.040406 -0.048239 0.183085
0.000625 -0.204884 -0.023696
0.283711 -0.037757 0.365633
-0.225681 -0.331214 0.060331
0.063357 0.133417 -0.049156
-0.213455 -0.350646 -0.054914
0.040597 0.046397 -0.013074
-0.430295 -0.372451 0.198653
-0.137487 -0.638670 0.213001
-0.052047 -0.627574 0.123469
0.498689 0.192236 0.540780
0.274385 -0.595026 0.144126
0.394109 -0.564799 0.118998
0.044467 -0.604179 0.244054
0.081493 -0.198115 0.259355
0.595311 0.248942 0.595730
-0.237909 -0.008506 -0.136049
0.044212 -0.590052 0.251306
-0.051914 -0.704287 0.200209
-0.195280 -0.293099 -0.110443
0.226812 -0.615959 0.146492
-0.284385 -0.271499 0.081101
-0.033807 0.052203 0.111454
-0.019169 -0.941852 0.215254
-0.465972 -0.324212 0.187309
0.146135 -0.650214 0.114856
-0.057347 -0.657623 0.182806
0.148447 0.167926 -0.344249
-0.030306 -0.424800 0.195118
-0.022364 -0.477342 0.122077
-0.179486 -0.628204 0.214739
-0.086575 -0.353198 0.074884
-0.554843 -0.107512 -0.341349
-0.064697 -0.550075 0.141416
-0.112144 -0.539513 0.123226
0.028931 -0.658216 0.191212
-0.005279 -0.263555 0.036014
-0.052447 -0.731618 0.202691
-0.329112 -0.222882 -0.199553
-0.013050 -0.933558 0.214029
0.588158 -0.463730 0.167823
0.835945 -0.349793 0.153592
-0.273142 -0.564058 0.199943
0.477393 0.155091 0.516303
-0.182100 0.292561 -0.176533
-0.660932 0.115177 0.280546
-0.478432 -0.335200 0.199963
0.029123 -0.475655 0.193834
-0.023648 -0.665931 0.209675
-0.071658 -0.967199 0.199220
0.030648 -0.323169 0.205440
-0.215034 -0.339525 0.084158
-0.029163 -0.455026 0.171417
-0.628162 0.377253 0.028511
0.358930 0.797984 0.125848
-0.028531 -0.404346 0.202618
-0.167437 0.236662 -0.145130
-0.065527 -0.819864 0.195643
-0.206652 -0.223918 -0.271296
0.236111 -0.391276 0.322207
-0.121043 0.117450 0.099060
0.096329 0.053689 -0.288528
-0.098401 -0.571234 0.126057
-0.211136 -0.560915 0.204626
-0.248921 -0.327312 -0.088362
-0.170416 -0.455344 0.097131
-0.037680 -0.478016 0.183946
-0.071722 -0.718323 0.138495
-0.002595 -0.759176 0.207329
-0.420082 -0.075309 0.082332
0.062689 0.370203 -0.049141
-0.378473 0.513989 -0.502617
-0.479315 -0.139328 -0.297657
0.672045 -0.414555 0.177254
-0.161809 0.159567 0.088008
0.325306 -0.290043 0.289721
-0.630546 -0.185479 0.202305
-0.257786 0.219807 0.333163
-0.266555 0.173073 -0.372384
-0.238670 0.024259 -0.520310
-0.206526 -0.294912 -0.145082
-0.175212 -0.403868 0.073640
-0.033831 -0.051219 0.145479
-0.162963 -0.411679 0.080407
-0.619515 -0.178339 0.205391
-0.222163 0.422556 -0.250691
0.412955 -0.565312 0.144069
-0.528225 0.350434 0.021226
-0.129622 -0.624346 0.198599
0.479281 -0.502613 0.163013
0.389405 0.062692 0.442391
-0.167754 -0.430787 0.070592
0.335519 0.007598 0.383845
-0.017701 -0.572362 0.139214
-0.510129 0.022599 0.140497
-0.192794 -0.292455 -0.172469
-0.272742 0.078198 -0.265736
0.611921 0.266632 0.596350
0.023044 -0.672846 0.186268
0.265399 -0.584784 0.121345
-0.027088 -0.387259 0.182018
-0.037170 -0.468634 0.184885
-0.235566 -0.148080 -0.316432
-0.096232 -0.714165 0.195713
-0.100973 -0.697689 0.147177
-0.030271 -0.747260 0.210214
-0.202323 0.341203 -0.216454
0.008761 -0.356351 0.117387
0.341445 0.012121 0.388108
-0.228457 -0.608901 0.196948
-0.127153 0.120775 -0.076418
-0.147284 -0.438953 0.077292
-0.080576 -0.563589 0.146447
0.009829 0.247098 0.121199
0.047125 -0.007985 -0.216374
-0.174838 -0.421758 0.108626
-0.268442 -0.297537 -0.128492
-0.018937 -0.304015 0.026963
0.304484 -0.598952 0.146166
-0.072371 -0.783011 0.155893
-0.246225 -0.349709 0.073804
-0.059133 -0.076908 0.055898
0.064745 0.080270 -0.021829
-0.110625 -0.227892 0.024129
-0.049426 -0.775118 0.122385
-0.004123 0.723597 -0.101888
0.018007 -0.390350 0.163085
0.318244 -0.029382 0.380010
0.547946 -0.152247 0.351061
0.254519 0.282512 -0.402480
-0.152040 -0.405396 0.028475
0.041730 0.598315 -0.066881
0.110153 0.224904 -0.088671
-0.007570 -0.583714 0.133548
0.377308 0.029546 0.437099
-0.174212 -0.380806 -0.055467
-0.041990 -0.533806 0.146915
-0.042733 -0.558199 0.195294
-0.026458 -0.076029 0.138442
-0.208903 -0.080182 -0.076045
-0.000800 -0.708146 0.124101
0.152100 0.421209 0.169101
-0.020505 -0.291276 0.016737
-0.065747 -0.869788 0.202721
-0.171036 0.275060 -0.164908
-0.519984 -0.282543 0.204253
0.537272 -0.467970 0.138219
-0.022000 0.181589 0.116501
0.093410 -0.567700 0.237729
-0.236397 -0.342824 0.090503
0.015312 -0.471686 0.215398
-0.030188 -0.247435 0.019520
-0.265108 -0.003039 -0.160146
-0.021436 -0.657156 0.123509
-0.369162 -0.470887 0.199198
0.052816 0.056417 -0.015522
0.262371 0.302075 -0.397382
-0.156560 -0.655454 0.164695
0.042913 -0.109689 -0.159901
0.351869 -0.553766 0.142519
-0.156536 0.266679 -0.156048
-0.004575 -0.977717 0.209617
0.005021 -0.322078 0.161829
-0.243151 0.030956 -0.524490
0.144671 -0.465017 0.267029
-0.073015 -0.553016 0.146015
0.299705 -0.325169 0.282343
-0.013864 -0.152892 0.180233
-0.007147 -0.172443 0.156194
0.016618 -0.164195 -0.073169
0.007091 -0.144240 -0.119570
-0.054754 -0.637938 0.185353
-0.052669 -0.345798 0.083561
-0.091827 -0.316919 0.052147
0.157540 -0.500752 0.292893
-0.241281 -0.325285 0.054254
0.007820 -0.197042 0.149569
0.023194 -0.850772 0.158846
-0.386971 -0.447748 0.205579
-0.720614 -0.115889 0.192880
-0.068597 -0.821158 0.134773
0.517381 -0.486281 0.164624
-0.328001 -0.469910 0.171967
-0.123220 -0.683967 0.203985
0.019939 -0.382500 0.212430
-0.060044 0.048030 0.130458
-0.169791 -0.327507 -0.105340
-0.161838 0.856540 0.454855
0.237184 -0.071417 0.338050
0.506447 -0.470165 0.143155
-0.478125 -0.354551 0.192439
-0.160470 -0.124067 -0.046585
-0.007644 0.074491 0.135209
0.053169 0.094041 -0.039465
0.061673 0.070849 -0.019866
0.518991 0.822115 0.195012
-0.082658 -0.707816 0.199995
-0.284367 0.250666 0.046496
-0.006297 -0.204801 0.192904
0.283228 -0.042295 0.339524
0.026820 -0.413796 0.176343
-0.050651 -0.094360 0.068828
-0.083597 -0.868149 0.161640
-0.060730 -0.233334 0.035515
-0.021193 -0.141264 0.171054
-0.170169 -0.345482 -0.087170
0.011530 -0.084587 -0.012233
-0.054551 -0.723813 0.201426
-0.197198 -0.102040 -0.082659
-0.590849 0.817130 0.135724
-0.008929 -0.230967 -0.043460
-0.393243 -0.454098 0.187085
-0.056910 -0.683620 0.149011
0.719439 -0.009889 0.308263
-0.521149 -0.262909 0.181415
0.000862 -0.735625 0.122707
-0.144782 -0.209998 -0.398929
-0.014893 -0.529295 0.216473
-0.279585 0.054535 -0.229315
-0.021377 -0.177968 0.169593
0.113139 -0.486964 0.283643
0.075574 -0.729648 0.167214
-0.155556 -0.192826 -0.407263
0.242206 -0.609498 0.145876
-0.411611 -0.413550 0.168934
0.395557 -0.250848 0.326732
-0.013303 -0.980878 0.111919
-0.030388 -0.502378 0.127443
-0.347633 -0.201593 0.056383
0.157339 0.485066 -0.194775
-0.043924 0.462873 -0.218064
0.448109 -0.202163 0.315113
-0.057089 -0.315869 0.068480
-0.110619 0.567557 0.239833
-0.194270 -0.084368 -0.065383
-0.165742 -0.393206 -0.040193
-0.022461 -0.685495 0.122287
-0.166060 -0.115258 -0.053941
0.627555 -0.422761 0.172754
-0.387077 -0.455315 0.179353
0.328833 0.763988 0.138889
0.074279 0.141158 -0.039967
0.007377 -0.336650 0.069579
0.389740 0.031847 0.433241
0.027592 -0.501762 0.195037
-0.538711 0.850618 0.683164
-0.038712 -0.015627 0.139795
-0.019157 -0.233099 0.169305
-0.109721 0.099552 0.112421
-0.282357 0.016601 -0.148918
-0.165423 -0.228841 -0.340995
0.019471 -0.880509 0.143256
0.218681 0.462321 0.166328
0.023930 -0.365446 0.207348
0.087059 0.139442 -0.056957
-0.486643 -0.316781 0.200239
-0.104289 0.050455 0.227568
0.094949 -0.568982 0.246216
-0.004736 0.108744 0.133805
-0.064094 -0.008285 0.181353
-0.077365 -0.287649 0.017655
-0.039573 0.053199 0.079679
-0.200468 -0.289302 -0.122298
-0.076161 -0.931438 0.133596
-0.377357 -0.439345 0.169120
-0.206790 -0.216707 -0.279515
-0.554472 -0.243354 0.180104
0.006205 -0.621762 0.135943
0.293784 -0.310069 0.312135
-0.022952 -0.339071 0.178670
-0.493007 -0.009653 0.116944
0.021976 -0.681420 0.183556
-0.059851 -0.123747 0.098163
-0.025279 -0.489668 0.122859
-0.326875 -0.459839 0.179072
-0.500591 0.755166 0.608842
-0.153107 0.821705 0.410639
-0.302330 -0.273036 -0.132463
0.062767 -0.564246 0.211985
-0.262690 -0.298292 0.083085
-0.193303 -0.628546 0.171380
0.193081 -0.616226 0.135951
-0.365855 0.365392 0.410564
-0.112839 -0.469651 0.034828
0.006757 -0.299894 0.055160
-0.173743 -0.311063 -0.131896
-0.062863 -0.634011 0.160881
-0.184004 -0.330583 -0.109568
0.122326 -0.667313 0.172994
-0.055671 -0.796655 0.201773
-0.273624 0.242108 0.060030
-0.205326 -0.306740 -0.120837
-0.258142 -0.284823 -0.120597
-0.175781 -0.279524 -0.145187
-0.183579 -0.087007 -0.069924
-0.360117 -0.168836 0.056411
-0.148612 -0.456711 0.030202
0.018709 -0.415303 0.163487
-0.698716 -0.128393 0.180639
0.409341 0.081247 0.456400
-0.464460 -0.329964 0.193089
-0.151338 -0.188519 -0.003322
-0.343591 0.091159 -0.189634
-0.036460 -0.475289 0.163924
-0.075409 -0.433613 0.105014
0.528435 -0.464705 0.164248
-0.199251 -0.063420 -0.087762
-0.503143 -0.298474 0.173320
0.663135 0.310750 0.615958
-0.323921 0.053927 -0.173125
-0.392373 0.557098 -0.544021
0.192501 0.199748 -0.358913
-0.060553 -0.272919 0.056270
-0.045005 -0.688996 0.201252
-0.207662 -0.349364 0.072519
0.002524 -0.582258 0.207805
0.277502 -0.035254 0.355178
-0.144546 0.165129 -0.085603
-0.152070 -0.380905 -0.024201
0.531220 -0.142991 0.340266
0.023389 -0.324958 0.173102
0.084853 -0.709208 0.129227
0.271043 -0.326048 0.304233
0.227825 -0.074986 0.329176
-0.308435 -0.249326 0.077738
-0.199514 0.201519 0.080399
0.619284 -0.451567 0.166852
0.327017 0.364066 -0.427283
-0.258742 0.016834 -0.163367
-0.293414 0.259570 0.053052
-0.023334 -0.093508 -0.014386
-0.238376 -0.301965 0.063419
0.341475 -0.271286 0.299099
-0.503116 -0.283915 0.198496
-0.169782 -0.312694 -0.115230
-0.001170 0.753934 -0.120281
-0.035500 -0.578997 0.205769
-0.379432 -0.416258 0.193776
-0.100057 -0.258433 0.007513
-0.003836 -0.166080 -0.098003
-0.005675 -0.124297 0.142716
0.002879 -0.560084 0.140946
0.192916 -0.140207 0.311234
0.130460 -0.471802 0.292124
-0.027311 -0.750087 0.117162
0.149146 -0.461102 0.305651
0.349519 -0.296102 0.318217
0.078566 -0.668701 0.161075
0.151320 -0.485820 0.259120
0.323010 -0.602062 0.107049
-0.546801 -0.246790 0.180880
0.042731 -0.706508 0.133922
-0.061354 -0.434837 0.134685
0.657300 -0.065761 0.338925
-0.068023 -0.311063 0.071242
0.012038 -0.905638 0.194442
-0.047236 -0.572746 0.111175
0.900955 -0.315343 0.131460
-0.345647 0.442398 -0.399571
-0.022240 -0.748954 0.211868
-0.623245 -0.096427 -0.336106
-0.495932 -0.318445 0.171898
0.041943 0.070655 -0.030786
-0.123313 0.732750 0.351899
-0.009215 -0.052883 0.152458
0.004043 0.244466 0.115495
-0.206041 -0.260942 -0.172296
-0.044441 -0.135270 0.092311
0.006566 -0.276650 0.210090
-0.245541 -0.103535 -0.387157
-0.322332 -0.478453 0.211692
0.144842 -0.649041 0.162667
-0.048253 -0.473178 0.110029
-0.118534 -0.199486 -0.500463
-0.254373 -0.292044 -0.121910
-0.044400 0.093927 0.107680
-0.194216 -0.282718 -0.125089
-0.066758 -0.110982 0.088728
-0.027919 -0.250204 0.006009
-0.236643 -0.570015 0.170403
0.111432 -0.500410 0.248752
0.666292 -0.058265 0.335217
-0.040079 -0.926072 0.110044
0.873644 -0.326648 0.140960
0.781720 -0.377031 0.154619
0.052846 -0.566815 0.209157
-0.255854 0.228385 0.060677
-0.226438 -0.194307 -0.289371
-0.736494 -0.104305 0.195156
-0.027511 -0.604601 0.124110
-0.002373 0.294672 0.099051
0.639822 0.295955 0.609560
0.238880 -0.628605 0.100952
-0.027275 -0.648461 0.124383
-0.471743 -0.364250 0.189477
0.078618 0.057283 -0.269665
-0.025294 -0.348382 0.187398
-0.183151 -0.645189 0.196418
-0.081795 -0.190314 -0.602016
-0.352360 -0.198633 -0.208480
-0.208679 -0.351429 -0.047165
-0.475333 -0.033429 0.106402
-0.230737 -0.591916 0.173407
-0.005803 -0.322004 0.162795
0.643324 -0.053230 0.425441
-0.041846 -0.149701 0.126021
-0.008562 -0.764485 0.209251
0.149866 -0.637648 0.122181
-0.035334 -0.412372 0.106351
-0.644815 -0.163116 0.183598
-0.272166 0.063930 -0.229145
-0.282208 -0.525658 0.169856
-0.163523 -0.373333 -0.042991
-0.060476 -0.690966 0.167319
0.196240 -0.123005 0.292656
-0.183662 -0.609938 0.163846
-0.052745 -0.220416 0.032241
-0.059206 -0.252322 0.046073
0.332641 -0.607175 0.125185
-0.031053 -0.197445 0.027779
0.052895 0.001329 -0.240130
0.017716 -0.003639 -0.001211
-0.004635 -0.064848 0.004046
-0.120774 0.057713 -0.041258
-0.027773 -0.181875 0.024438
-0.277295 0.250679 0.335714
-0.027600 -0.874659 0.216416
0.112101 -0.502207 0.291562
-0.133764 -0.676493 0.205367
0.319869 -0.033412 0.369426
-0.021072 -0.279974 0.176632
-0.128151 0.137265 0.101046
0.579557 -0.441835 0.150959
-0.187464 0.159284 0.285684
0.064384 -0.582703 0.207918
0.264827 0.549030 0.193987
-0.177252 -0.405841 0.007498
-0.046061 -0.507767 0.174713
-0.092740 -0.474374 0.068757
-0.014147 0.647753 -0.055343
-0.133102 -0.213658 0.009717
-0.022173 -0.061161 0.155357
0.019454 -0.440194 0.214119
-0.393258 0.552306 -0.537565
-0.180161 -0.404155 0.104113
-0.199001 -0.078069 -0.071293
-0.271571 -0.507272 0.206688
-0.034148 -0.440065 0.137186
0.009112 -0.360444 0.102565
-0.564797 0.058781 0.194481
-0.122867 0.070308 -0.050759
-0.552447 -0.233369 0.184378
-0.073829 -0.247106 0.017056
-0.017908 -0.312496 0.081257
0.044132 -0.694381 0.177817
-0.206478 -0.278223 -0.178711
-0.201819 -0.301154 -0.150824
-0.137664 -0.195587 -0.422252
-0.028022 -0.018326 0.123433
-0.257787 -0.035448 -0.437708
-0.812672 -0.057172 0.197200
0.115759 0.260365 -0.083718
-0.056988 -0.201926 -0.682914
0.198970 -0.668473 0.132059
0.115782 0.122499 -0.319985
0.199695 0.206628 -0.376874
0.008287 -0.165406 0.181249
0.466125 0.154252 0.528045
0.077639 -0.587812 0.239275
0.011182 0.832492 -0.186122
0.087220 0.171499 -0.050443
-0.210804 -0.060970 -0.117671
-0.162583 -0.211207 -0.339214
-0.007051 -0.093738 0.168120
-0.027001 -0.286769 0.047149
-0.021694 -0.360080 0.206748
-0.018984 -0.177497 0.178663
-0.927253 0.434053 0.042756
-0.020295 -0.998383 0.110521
0.178002 -0.144402 0.313100
-0.166807 -0.203059 -0.395425
-0.317387 0.831994 -0.476172
0.026540 -0.560429 0.185856
0.072874 -0.577936 0.213212
0.239286 -0.097548 0.328934
-0.057067 -0.997579 0.210322
-0.480392 0.341460 0.014255
-0.174083 -0.231433 -0.271591
0.047860 -0.743747 0.178396
-0.134711 0.098459 -0.049896
-0.131154 0.280863 0.092001
-0.029145 -0.107453 -0.001835
-0.252339 0.007943 -0.481993
-0.188103 0.306213 -0.186281
-0.087484 -0.581429 0.138189
-0.043655 0.032322 0.134800
0.009917 -0.207750 0.151896
-0.036843 0.037638 0.093022
-0.224184 -0.374182 0.094108
-0.426596 -0.378321 0.169951
-0.050869 -0.523032 0.163737
0.128428 -0.691437 0.124173
-0.151320 0.308450 0.089938
0.391817 0.055663 0.433233
-0.065728 -0.834290 0.127999
0.675962 -0.002691 0.497196
0.054218 0.065468 -0.043392
0.203031 -0.439597 0.311452
0.024065 -0.240932 0.185847
0.066399 -0.712628 0.129202
0.030143 -0.481662 0.187179
0.416301 -0.527144 0.155944
0.026550 -0.582436 0.239372
-0.103687 0.297456 0.073011
0.018198 -0.435935 0.162163
-0.271442 -0.304244 -0.102381
-0.231095 0.325574 -0.237102
-0.001028 0.351621 0.074190
-0.256064 -0.284367 0.057455
-0.046779 -0.175911 0.011802
0.370496 0.032370 0.410102
-0.119281 0.219441 -0.105672
0.009615 -0.873650 0.127722
0.188348 -0.642098 0.105303
-0.083060 -0.952173 0.177985
0.102990 -0.654947 0.158795
0.007988 -0.576433 0.142021
-0.023854 -0.344289 0.201342
-0.311430 0.296821 0.362496
-0.046605 -0.562053 0.189224
-0.241139 -0.340642 0.059481
-0.139541 -0.208131 -0.467947
0.010138 -0.691675 0.201423
-0.052635 0.044935 0.126755
-0.018608 -0.792593 0.114359
0.380078 -0.261347 0.292785
0.355604 -0.590278 0.114659
-0.053382 -0.755328 0.127050
0.302567 -0.607201 0.144432
-0.441419 -0.064706 0.086321
-0.153490 -0.421544 0.037868
0.081923 -0.717282 0.132648
0.004409 -0.614510 0.225991
0.020828 -0.022775 -0.026689
-0.233215 0.333546 -0.233862
-0.203567 -0.307603 -0.110591
0.014024 -0.443644 0.160247
-0.017531 -0.213472 0.152428
-0.060339 -0.030751 0.192424
-0.336342 -0.462682 0.208989
0.547066 -0.123470 0.354796
-0.082280 -0.236672 0.011272
-0.006662 -0.366568 0.148845
-0.048308 -0.556104 0.172203
-0.057020 -0.688944 0.182418
-0.086404 -0.189382 -0.594804
0.063175 -0.216464 0.246840
0.193893 -0.125591 0.321040
-0.034004 -0.826826 0.213273
-0.351013 -0.485359 0.201945
-0.004083 -0.074471 -0.024566
0.788471 0.045511 0.294848
0.726364 -0.407442 0.163927
-0.066540 -0.075928 0.052863
-0.035287 0.045266 0.102381
-0.044478 -0.698730 0.127625
0.160703 -0.644070 0.112055
-0.063097 -0.882391 0.205765
-0.370095 0.113817 -0.202600
0.290489 -0.046370 0.367072
-0.195512 -0.084174 -0.095891
0.686448 0.349678 0.646501
0.659454 -0.044494 0.338369
-0.163150 0.206115 -0.124114
-0.258271 -0.046330 -0.427014
-0.051436 -0.404771 0.072416
0.007201 -0.742964 0.124794
0.036732 -0.058840 -0.195309
-0.199501 -0.317062 -0.125423
-0.067226 0.239946 0.143500
0.019348 -0.686598 0.171343
-0.244108 0.030690 -0.533450
0.280595 -0.369412 0.298540
-0.018924 -0.225233 0.162248
-0.276226 0.025842 -0.163463
-0.468660 -0.042496 0.111014
0.278595 -0.321885 0.308406
0.167029 0.389588 0.162853
0.055731 -0.737584 0.179500
0.305522 -0.618729 0.121857
-0.074344 -0.964359 0.130862
-0.013373 -0.101794 0.174263
-0.405379 -0.404166 0.203618
0.010797 -0.671183 0.133738
0.010370 -0.344604 0.216851
-0.021145 0.630411 -0.046425
-0.112573 -0.710405 0.190919
-0.538247 -0.100831 -0.375569
-0.070955 0.139143 -0.007018
-0.037357 0.004521 0.118900
-0.113669 -0.224762 -0.010188
0.380326 0.036405 0.442611
-0.239516 0.447367 -0.404308
-0.051182 -0.313276 0.041449
-0.120348 0.111484 -0.058504
-0.074080 0.194316 0.093884
-0.047715 -0.616135 0.194165
0.032784 -0.121525 -0.112406
-0.142758 -0.683515 0.189753
-0.056864 -0.489032 0.131755
-0.024031 -0.901149 0.109781
-0.674896 -0.084940 -0.348546
0.144621 0.335683 -0.119670
-0.008511 -0.951344 0.212241
-0.381369 -0.145610 0.082168
-0.335577 -0.474537 0.168650
-0.197679 -0.112188 -0.058086
0.830224 -0.340855 0.152492
0.222358 -0.101805 0.331479
-0.017763 -0.540978 0.215273
-0.156300 -0.376451 -0.030232
0.289975 -0.356701 0.294016
-0.505911 -0.279524 0.181520
-0.244306 0.023735 -0.529373
-0.001647 -0.882898 0.207507
-0.351158 0.086120 -0.190529
0.028434 -0.011687 -0.000330
-0.049270 0.050134 0.082505
0.019535 -0.202722 0.167789
-0.036384 -0.643067 0.122321
-0.203439 -0.099545 -0.066055
0.407385 0.084787 0.475193
0.096203 -0.701633 0.176085
-0.011130 -0.253762 -0.020914
0.781259 0.042779 0.300157
0.788512 0.374541 0.643751
-0.036588 -0.418890 0.091264
0.234442 -0.415438 0.306925
-0.022444 -0.501734 0.129607
-0.099986 -0.659272 0.198798
-0.218181 -0.031074 -0.135767
0.344225 -0.309946 0.303716
0.031822 0.229480 0.148408
-0.556690 0.047097 0.177113
-0.277692 -0.286737 -0.139359
-0.079475 -0.756918 0.155988
-0.002686 -0.304142 0.211187
-0.070659 -0.765648 0.188353
0.627225 0.275884 0.610351
-0.384951 0.141386 -0.210469
0.153261 0.168242 -0.353044
-0.566714 -0.250446 0.192865
-0.226225 0.576175 -0.749525
-0.012272 0.079652 0.130441
-0.008922 -0.111497 0.175076
0.018046 -0.174495 -0.068126
-0.008554 -0.178924 -0.087389
-0.167390 -0.145792 -0.023190
-0.288122 -0.289040 -0.116286
0.261534 -0.070551 0.323151
0.082749 -0.695761 0.182269
-0.476556 0.645054 0.538761
-0.046106 -0.091283 0.080212
0.286212 -0.029516 0.361739
-0.003663 -0.166568 0.186055
0.003537 -0.840965 0.122526
0.207808 -0.388509 0.307749
0.289410 0.319040 -0.414530
0.130907 -0.517880 0.249176
-0.435504 -0.391427 0.201223
-0.401305 0.418938 0.441808
0.001852 -0.989935 0.120737
-0.214954 -0.030855 -0.126893
-0.045526 -0.099303 0.075202
0.337426 0.720880 -0.237692
-0.008957 -0.195635 -0.074403
0.064412 -0.028942 -0.203692
-0.080037 0.000679 0.021689
-0.606558 -0.195661 0.208422
0.178181 0.516968 0.179047
-0.018813 -0.439912 0.217015
-0.194496 -0.343540 -0.098095
-0.225505 -0.148944 -0.327294
0.085330 0.028219 -0.268461
0.533383 0.840556 0.201196
0.688566 0.341146 0.639111
-0.185798 -0.226485 -0.337137
0.259710 -0.365427 0.321374
-0.107254 -0.475489 0.043007
0.323714 -0.567051 0.140650
-0.114927 0.049759 -0.013194
-0.127154 -0.493208 0.069977
-0.012865 -0.223893 -0.003099
-0.085321 -0.894902 0.166033
-0.622960 0.092941 0.242884
0.026554 -0.581899 0.168678
0.106145 -0.556196 0.255647
-0.069692 -0.813242 0.137905
0.068668 -0.570815 0.213004
0.156227 0.467545 -0.195686
0.021227 -0.938507 0.152737
0.082682 0.066692 -0.288776
-0.528596 -0.285710 0.201122
-0.243146 -0.332940 0.057284
0.482275 -0.178906 0.326573
-0.012400 -0.232077 0.157571
0.892232 0.108935 0.316444
-0.103366 -0.544891 0.093574
-0.071109 -0.779035 0.174066
-0.236040 -0.038033 -0.124607
0.386343 -0.564280 0.153902
-0.516379 0.007634 0.139677
-0.012299 -0.258933 0.033139
0.012577 0.827160 -0.178417
-0.513601 0.352974 0.018390
-0.130091 0.089047 -0.042788
-0.007676 0.081086 0.142865
-0.377938 -0.121847 0.078208
