-0.15621 -0.632579 -0.173846
0.0525275 -0.280763 -0.00237597
-0.469437 -0.0409656 -0.299173
0.186517 -0.165982 0.656981
0.0115074 0.213009 0.476373
0.321232 -0.618813 0.224018
-0.189848 -0.602272 -0.17417
0.376637 0.00178591 0.0338301
-0.112333 -0.0719629 0.0194965
-0.204915 -0.281944 -0.0869523
0.166306 0.0736813 -0.0588131
0.130213 -0.253545 0.548616
0.638109 -0.579781 0.564144
-0.101108 -0.0553563 -0.278336
0.292915 -0.129733 0.0578619
0.757472 -0.204757 -0.0949261
0.737043 -0.22543 -0.0991731
0.288581 0.168835 0.0903811
0.0292325 -0.50448 0.0719971
0.0872267 0.415603 0.285739
-0.668613 -0.292307 0.171271
0.234089 -0.563864 -0.0144002
0.0239517 -0.191216 -0.0967888
0.121033 0.428971 0.355624
-0.172466 -0.290357 0.123211
0.0451392 -0.63364 0.0165595
-0.664971 -0.407179 0.038148
-0.256199 -0.251014 0.134038
0.0122775 -0.216403 0.608696
-0.208333 0.457256 -0.00716805
0.596187 0.364827 -0.20932
-0.509763 -0.349371 0.0700035
0.148713 -0.810512 0.0807851
0.550576 -0.563909 0.448747
-0.297032 -0.583059 -0.310944
-0.215434 -0.247939 -0.0918211
-0.679107 -0.409339 0.0515469
0.138255 -0.818075 0.0277619
0.362576 0.177842 0.275389
-0.312896 0.549832 0.00826541
0.150737 -0.462445 0.0305573
-0.153641 0.483544 -0.168084
0.401083 0.211732 0.262183
-0.237105 -0.236585 -0.0990077
-0.499285 -0.197095 0.324533
0.630141 -0.570373 0.523365
0.143851 -0.300824 0.49004
0.157879 -0.777584 0.0698877
0.422992 -0.448005 -0.110615
0.405219 0.0482621 -0.00664392
0.0654528 0.389229 0.00513731
-0.0334173 -0.00628619 0.337517
-0.00903243 0.0683888 -0.0641027
-0.468003 -0.0325608 -0.320216
0.0931493 -0.562515 0.175705
0.466715 0.0641821 0.0899173
0.154033 -0.756928 0.0484715
0.282109 0.27032 0.0746099
0.0858528 -0.428771 0.0108572
0.420115 0.18946 -0.0406587
0.464355 -0.574251 0.317416
0.0868045 -0.470707 0.285299
0.0714624 -0.132837 0.0215331
-0.496325 0.188141 -0.478453
0.362784 0.756013 -0.132275
-0.426616 0.211437 -0.254219
0.0392187 -0.271472 0.516325
0.717872 -0.240549 -0.0804211
0.001628 -0.203737 -0.0895464
-0.690352 -0.30384 0.178459
0.0581293 0.611565 0.00937003
0.138155 -0.304469 0.0359653
0.117582 -0.927077 0.0172367
0.657131 -0.569939 0.571245
0.0610864 -0.852619 0.0372848
0.339525 -0.0704853 0.0467379
-0.115622 0.375125 -0.00547723
-0.00601787 -0.106089 0.274157
-0.0610997 -0.482707 -0.0375104
0.130706 -0.512813 0.202184
0.0563296 0.277021 0.0528213
0.0812957 -0.589331 0.0471755
0.196018 0.0713677 0.238662
-0.533613 0.323909 -0.271736
-0.359413 -0.536933 -0.400461
0.138057 0.203864 0.313792
0.661645 -0.576917 0.56316
-0.0637832 0.311976 -0.003272
-0.0963941 -0.662584 -0.0895533
-0.0994099 -0.383424 -0.0767536
-0.0376613 0.450541 0.222789
0.0359037 -0.610248 0.0231412
-0.0147614 0.0677901 0.389661
-0.0572749 0.154026 -0.0902912
-0.366325 0.118993 -0.187447
0.139284 -0.339528 0.444661
-0.472685 -0.123195 -0.185281
0.0338949 0.256692 0.488827
-0.15406 -0.349677 -0.0648747
0.0576808 -0.797813 0.0633085
0.0484536 0.688571 -0.21453
-0.304664 -0.204463 0.171234
-0.00819704 0.0292557 -0.0154532
-0.146101 0.0487363 -0.594541
-0.418312 -0.196856 0.292664
0.151196 0.106662 -0.0575939
0.0981189 -0.76372 0.00702912
0.282267 -0.659397 0.140141
0.150489 -0.470776 0.0516173
0.211501 0.0724179 -0.0547427
-0.11553 0.518989 0.317064
0.0506685 0.393371 0.545851
-0.00175036 -0.167109 0.223852
-0.679603 -0.303835 0.174423
-0.499341 -0.349376 0.0741163
0.125719 -0.0533805 0.172611
0.120809 -0.349744 0.0670296
0.321315 -0.101381 0.0578285
-0.190331 -0.615389 -0.157321
0.0763261 -0.0740253 0.10937
0.143653 -0.295187 0.498587
0.135548 0.22071 0.332877
0.00258201 0.835501 0.418755
0.119502 -0.790925 0.105273
0.151238 -0.229802 0.542248
0.123015 -0.584221 0.00261209
0.0216519 -0.0535216 -0.011036
-0.00596005 -0.0746832 0.282336
-0.273387 -0.274227 -0.0624181
-0.361091 0.131809 -0.218202
-0.122527 -0.394277 -0.0560907
0.262618 -0.663397 0.176962
-0.0397152 0.254752 0.0217692
0.182634 -0.381896 0.0702053
-0.336061 -0.186563 0.174597
0.0596104 -0.953373 0.0362368
0.156883 -0.0194652 -0.0399909
0.528267 -0.55948 0.388907
0.624421 -0.579984 0.505696
0.522403 0.0874067 0.0998072
0.555411 -0.563352 0.452659
-0.527576 -0.208281 0.33976
0.56532 -0.575773 0.467491
0.101085 -0.20284 0.00146914
0.116789 0.485347 0.568515
0.113317 -0.360523 0.422603
0.140224 -0.316981 0.443963
0.0611413 0.287195 0.0370928
-0.473872 -0.326835 0.0986816
0.159269 -0.217945 0.596907
-0.0425616 0.386656 0.208583
0.20709 -0.709997 0.137504
-0.0990632 0.0230362 -0.802109
0.149689 -0.190846 0.634069
-0.0795085 -0.437672 -0.0645939
-0.103136 0.0169828 -0.81132
0.659328 -0.586149 0.563443
0.012623 -0.189244 0.0162982
0.743925 -0.232666 -0.0944925
0.403467 -0.598877 0.284373
-0.440464 0.234339 -0.267699
0.0503491 -0.715947 0.0286509
0.333899 0.185647 -0.0860251
0.0867931 -0.408037 0.0269715
-0.394787 0.153016 -0.235855
0.213042 0.575867 -0.0498925
-0.208454 0.0167171 -0.0452296
-0.0623608 0.425701 -0.0862693
0.111989 -0.539299 0.230226
-0.137922 -0.338773 0.0254236
0.324104 0.46568 0.0639613
0.00607557 0.00201045 -0.0371555
-0.12996 -0.655288 -0.113551
0.150274 -0.484936 0.0318587
0.113424 -0.191723 -0.000165515
0.124772 -0.469696 0.290509
-0.639075 -0.205923 -0.078496
-0.169815 0.0588464 -0.511579
0.0604328 -0.734003 0.0610195
-0.0397744 0.274432 0.168679
0.429317 0.488411 -0.100045
-0.0539251 -0.129413 -0.180793
-0.0618389 -0.674624 -0.0594267
0.0880053 -0.122526 0.154915
0.0711933 -0.798459 0.0945747
-0.310608 -0.204197 -0.103157
0.0230297 -0.0194285 -0.0152932
0.0506667 0.659611 0.316181
-0.0257202 -0.14121 -0.152837
0.0778933 -0.611653 0.0494541
0.0955312 -0.667032 0.0924235
0.121436 -0.895504 0.112672
0.607515 -0.581379 0.480707
0.0720024 0.466661 0.290616
0.290475 0.155796 0.261556
0.248198 -0.600611 -0.0365752
-0.46676 -0.0881973 0.172903
0.0669331 -0.349933 0.041416
0.150812 -0.904992 0.0804995
0.0462707 -0.260364 -0.0515181
-0.0622571 -0.660595 -0.0606232
0.129269 -0.264095 0.537008
0.5242 0.100005 0.087308
-0.1208 -0.393269 -0.0674709
0.0973568 -0.383685 0.0123448
0.135237 -1.01277 0.0268728
0.12766 -1.00349 0.0215043
0.809653 -0.164435 -0.101044
0.318032 0.324643 0.0582304
-0.710491 -0.425549 0.046472
0.0839259 -0.459093 0.294171
0.137241 -1.0042 0.0285408
-0.389909 0.142808 -0.227129
0.0579477 -0.819397 0.0492141
0.014761 0.343096 0.232223
-0.465416 -0.0970301 0.165127
0.150641 -0.240718 0.531213
0.139645 -0.865203 0.0979403
-0.107773 -0.383459 0.0819536
0.39316 0.0830269 0.000986464
0.411541 -0.561392 0.280435
0.0598941 -0.852909 0.0884259
0.118202 -0.493944 0.279909
0.0494403 -0.963349 0.0680144
0.267709 -0.0120749 0.0978093
-0.121965 0.0301973 -0.591083
0.0836317 -0.771848 0.0989712
0.109473 -0.406128 0.0110234
0.581504 0.299288 0.264328
0.0247408 -0.201245 0.0168123
0.13173 -0.571856 0.181691
-0.0347584 0.0791579 -0.0603128
-0.365899 -0.536472 -0.410651
-0.351368 -0.170307 0.177351
-0.370288 -0.133706 -0.136811
0.175356 0.12514 0.27276
0.156013 0.255373 -0.0610152
0.14681 0.0507776 -0.0470829
-0.649549 -0.280661 0.159175
-0.349168 -0.216019 -0.107004
-0.169153 0.594235 -0.192135
-0.769821 -0.303784 0.199412
0.149019 -0.704461 0.0702344
-0.0483989 0.508429 -0.126495
0.135684 -0.0529485 0.181414
0.275763 0.679733 -0.110681
0.0585645 -0.381896 0.391341
0.119158 -0.441437 0.316888
-0.105334 -0.0914504 -0.253138
-0.338976 0.120345 0.444709
-0.0197371 -0.167688 0.235127
-0.0679557 0.197407 -0.0979259
-0.069916 0.208359 -0.0993312
0.0935171 0.064084 0.163005
0.17727 0.287365 -0.0386371
-0.692957 -0.300027 0.152769
0.284429 0.158746 0.0798259
0.0598531 -0.235914 0.0196123
0.00780832 0.637213 -0.184593
0.14884 -0.304464 0.0400589
0.32528 -0.0775104 0.043872
0.0490544 0.493936 0.343597
-0.0352171 0.244107 0.0184919
0.100887 -0.454389 0.00841683
-0.0755619 0.335512 -0.0130358
0.0336853 -0.0349485 0.0607059
0.137495 -0.11268 0.000808824
-0.330189 0.115692 0.436624
0.0557744 -0.821331 0.0640741
-0.223064 -0.603752 -0.187764
-0.150151 0.0694968 -0.499947
0.124974 -0.404357 0.367949
0.216327 -0.225037 0.0537787
-0.379453 0.700107 0.335053
0.323781 -0.518013 -0.0851736
0.0250947 -0.275853 0.487595
0.177659 -0.0317085 -0.0259844
-0.221022 -0.625869 -0.189282
0.177538 0.130009 -0.0565149
0.0776013 0.427499 0.28648
0.105003 -0.685952 0.0938603
0.665296 -0.276971 -0.109173
0.587877 0.163575 0.123493
0.074604 -0.393096 0.356973
-0.254899 -0.0290653 0.348549
-0.218667 -0.328069 0.00884165
0.665803 -0.585595 0.580424
-0.47588 -0.0374157 -0.182792
0.143312 0.190291 0.322901
-0.0498304 0.133961 -0.0711304
0.155677 -0.735552 0.0484789
0.425739 0.440176 -0.103694
-0.00127289 -0.0187084 -0.0222031
0.0916216 0.0756469 0.163151
0.105491 -0.483467 0.234734
0.0312637 -0.696848 0.00519696
-0.0245688 -0.147143 0.253641
0.144717 -0.640907 0.0813032
0.277829 -0.555016 -0.0642389
-0.226222 -0.597579 -0.232719
0.120298 0.338408 0.0661155
-0.383379 0.133898 -0.222253
0.290904 0.247363 0.0644373
-0.377211 0.594421 0.0302944
0.0881309 -1.00207 0.114709
0.431709 0.234047 0.279888
0.0355715 0.0963752 0.0769139
0.00472971 0.801405 0.405891
-0.112043 0.361096 0.00430539
0.149254 -0.295272 0.475867
0.277685 0.685755 -0.113814
0.431739 -0.444435 -0.112038
0.0869675 -0.294411 0.0696547
0.0739995 -0.622573 0.0521059
0.0948285 -1.01506 0.0146705
-0.339051 0.11868 0.446184
0.145244 0.248381 0.339523
-0.357821 -0.187196 0.165487
0.556416 0.134747 0.101669
-0.363832 -0.170093 0.17705
-0.287725 -0.572643 -0.306099
0.0141634 -0.0516413 0.0110841
0.139434 -0.970525 0.0983957
-0.260489 -0.274224 -0.0450293
0.0948925 0.627648 0.416939
0.159153 -0.735141 0.0591896
0.382979 -0.494669 -0.0718259
0.106358 -0.464507 0.0722347
0.494003 -0.394245 -0.0886875
-0.0392957 0.263197 0.160075
0.195942 -0.150484 0.676181
0.183551 -0.316965 0.0857285
0.469843 0.0545059 0.0697821
-0.366112 0.132939 -0.223649
0.0457173 -0.140689 0.040436
0.140238 0.440771 0.511912
0.386813 -0.466211 -0.104538
0.459667 -0.562859 0.357203
-0.0299083 -0.126666 0.270485
0.0500221 0.407371 0.553472
0.110305 -0.651192 0.00541253
0.271317 0.0209927 0.101092
0.139367 -0.338696 0.051272
0.30228 -0.119861 0.0577099
-0.192945 -0.283083 0.147222
0.504421 -0.55276 0.367299
-0.176892 -0.327957 -0.013764
0.155826 -0.554456 0.0379131
-0.0943904 0.0153912 -0.8114
0.134424 -0.598869 0.114326
-0.11259 -0.0936667 -0.247407
0.569771 0.135915 0.123113
0.127598 0.296947 0.386611
-0.0231493 0.175715 0.148769
-0.15444 0.524736 -0.177062
-0.26279 -0.595384 -0.230537
0.285109 -0.618064 0.191082
-0.400088 0.610296 0.0254596
-0.0700909 -0.256998 0.478653
0.259251 0.0283581 0.0781037
0.256058 0.105658 -0.0452445
0.0393373 0.364936 0.534485
0.0825968 0.56092 0.314643
0.0671315 0.601597 0.000952997
0.634613 -0.579144 0.522371
-0.0790213 -0.650709 -0.0738925
0.084028 0.394648 0.282251
0.321067 0.439688 0.0656864
-0.359507 0.183594 0.491832
-0.00962077 -0.250109 0.151409
0.0367931 0.347827 0.523408
-0.0444629 0.328515 0.177341
-0.00601272 -0.553173 -0.000135613
-0.499869 -0.361581 0.0704387
-0.0481709 0.384205 0.193018
0.585531 -0.349232 -0.0900899
-0.0123469 0.229451 0.0174679
-0.0990643 -0.107436 -0.193378
0.136219 -0.555691 0.19069
-0.139988 0.542019 0.319379
0.15143 0.439685 0.0391112
0.0227189 -0.733437 0.00451733
-0.128358 0.0353688 -0.671541
0.0923875 0.103882 0.196539
0.588573 0.134901 0.113256
-0.127694 0.0345899 -0.673685
-0.0898291 -0.415469 -0.0720707
-0.0579288 -0.383117 0.0928283
-0.137774 -0.3714 -0.066384
0.101064 -0.477528 0.00858368
-0.536592 -0.368941 0.0673651
0.397864 0.231621 -0.121744
-0.459637 -0.326003 0.0645795
-0.143526 -0.314408 0.113634
-0.414283 -0.197919 -0.106488
0.0127395 0.237131 0.474464
0.269493 0.6962 -0.129143
0.149503 -1.00991 0.0481635
0.403923 -0.439235 -0.0840091
-0.545269 -0.197899 -0.0744797
0.594813 0.138575 0.120167
0.176907 0.695456 0.128512
0.0979496 -0.283344 0.0674675
-0.0266701 -0.197794 0.191463
0.405109 0.11255 -0.0397173
-0.254889 -0.614787 -0.233219
0.148547 0.0204701 -0.0411133
-0.341533 0.0924088 -0.165157
0.437763 0.25775 -0.127131
0.0588616 0.632517 0.313187
0.303819 0.24144 0.0795507
0.00883245 -0.574848 -0.0285253
-0.0297336 -0.276736 0.467347
-0.561875 -0.315296 0.128168
0.000937741 0.165874 0.0349128
0.151603 -0.468704 0.0489352
0.599795 -0.339824 -0.108551
0.0522027 -0.918683 0.0798565
0.0191051 -0.475288 0.0339067
-0.00960301 0.0139621 -0.0422851
-0.212505 -0.338421 0.035752
0.131213 -0.338715 0.0630219
-0.0244892 -0.419123 0.056612
0.581475 0.149636 0.126937
0.0293664 0.302688 0.214146
-0.0258439 0.579605 -0.157172
-0.27748 0.018805 0.395427
-0.125677 -0.360443 0.124785
-0.422877 -0.120137 0.177221
0.317264 -0.0772525 0.072656
-0.486112 -0.315267 0.100142
0.652731 -0.285861 -0.110546
0.0151441 -0.691613 -0.0645416
0.0101802 -0.235607 0.552237
0.109307 -0.673624 0.00859352
0.0586453 0.3878 0.0228541
-0.232933 -0.0818581 0.310755
0.0124078 -0.201052 0.0176609
-0.175147 -0.626587 -0.140978
0.145388 0.447051 0.0381152
0.171074 0.414363 -0.0611693
0.167835 -0.0549944 -0.0182352
0.345405 -0.603437 0.192507
0.172003 0.734677 0.151498
0.135665 0.000999323 0.227491
0.106553 -0.293157 0.0223363
0.433307 0.217346 -0.0559453
-0.0606376 0.564256 0.277256
0.0881997 -0.40792 0.0136535
-0.0651763 -0.406208 0.0577091
-0.229561 0.478992 0.00601883
-0.357376 -0.212744 -0.107949
0.145623 -1.01069 0.0910819
-0.0558808 -0.260136 0.489163
0.152245 -0.174509 0.662867
0.175894 0.727088 0.139806
0.0917131 0.175574 0.229974
0.558344 -0.368296 -0.0908816
-0.805203 -0.299013 0.204461
-0.0241932 -0.427339 0.0877296
0.0906416 -0.38424 0.0692997
0.0927779 -0.418581 0.0677173
0.0139655 0.276435 0.11009
0.103923 -0.555496 0.0734981
-0.171956 0.0814229 -0.529811
0.254666 -0.127121 0.0798549
0.46212 -0.424176 -0.116274
0.173943 0.479677 -0.0581619
0.0136423 0.377795 0.156715
-0.291048 -0.198349 -0.0906541
0.0772019 -0.965451 0.0206875
-0.0131867 -0.552819 -0.011433
-0.0460635 -0.461645 -0.0582995
-0.126078 -0.212781 0.185135
-0.187733 -0.306163 -0.0055652
0.169748 -0.197788 0.605173
0.663925 -0.576731 0.571851
-0.181527 -0.615621 -0.150213
0.149244 0.0942064 -0.0562272
-0.0594459 -0.688829 -0.0771624
-0.0328488 -0.679267 -0.0953835
-0.0752125 -0.396373 0.061568
0.122408 -0.52584 0.176174
-0.350243 -0.187093 0.172525
0.164482 -0.642208 -0.00393131
0.133198 0.284523 0.352283
-0.249036 -0.0261733 0.362901
0.0425984 0.385928 0.545096
0.483227 0.294933 -0.164246
-0.381941 -0.118215 -0.123565
0.486653 -0.401968 -0.117365
0.246009 -0.650907 0.173588
-0.193023 -0.604792 -0.169677
0.167273 0.3008 -0.0588005
0.00373693 -0.698875 -0.00680864
-0.547296 -0.325619 0.109335
0.653109 -0.577621 0.546507
0.0398619 -0.225886 -0.0735995
0.592075 -0.339136 -0.112832
0.200407 0.0484768 -0.0309453
0.629549 -0.305784 -0.081224
0.0769701 -0.998971 0.020556
-0.027524 -0.418421 0.0861128
-0.17815 0.0712853 -0.521392
-0.0443472 0.194003 -0.0787947
0.0600477 -0.303827 0.00645515
0.0539635 0.00800904 0.0404389
-0.674923 -0.423003 0.0423315
0.223752 -0.275091 0.0802533
-0.181312 -0.282045 -0.0849795
-0.0620693 -0.207991 0.181218
-0.0436568 -0.675216 -0.0449464
0.0274512 -0.236551 -0.071532
0.130799 -0.906528 0.106511
0.105301 -0.845144 0.112283
0.269432 0.697221 -0.130317
-0.460069 -0.0768227 -0.255677
-0.0348501 -0.438397 0.0909232
0.142395 0.449061 0.518392
-0.00246867 0.11008 0.420139
-0.436016 -0.533331 -0.482653
0.256205 -0.628869 0.167577
0.162061 -0.744669 0.069904
0.0169424 -0.168076 0.645096
0.581432 -0.35868 -0.0996821
-0.0371432 -0.101069 0.275389
-0.00107886 -0.167144 0.212331
0.236637 -0.674923 0.165106
0.108285 -0.101702 0.175487
0.0528845 0.289603 0.0410229
-0.133721 0.0325208 -0.631267
-0.127888 -0.327248 -0.0653704
0.0914136 -0.551888 0.17705
0.121007 0.37812 0.455811
-0.00502221 0.141059 0.434307
0.165433 0.192037 -0.0378859
0.151623 0.0739731 -0.0363059
0.132335 -0.684059 0.00945397
0.363867 -0.608445 0.253739
0.302528 -0.119879 0.0681973
0.00383555 0.0750072 0.386624
-0.0963432 -0.104699 0.0215625
-0.135755 0.0248928 -0.519664
0.628664 -0.582939 0.515843
0.0802664 0.0478789 0.174604
-0.583536 -0.385245 0.0582381
0.118793 -0.0955877 0.149927
0.202427 -0.231931 0.0655904
0.269709 0.0402312 0.0841675
-0.0385523 -0.460744 0.0624749
0.20586 -0.338949 0.0697995
-0.0765349 -0.338451 -0.00586067
0.29104 -0.543563 -0.0724333
0.309053 0.283453 0.0583184
-0.170018 -0.30468 -0.0824141
0.109653 -0.728632 0.00678821
-0.213886 -0.296864 0.135748
-0.0178645 0.41236 0.266808
0.0720984 -0.190326 0.0189963
0.12139 0.286456 0.376317
0.173959 -0.3616 0.0835229
-0.257279 -0.267501 -0.0445221
-0.108817 -0.0523435 -0.303861
0.152571 -0.852139 0.0698419
-0.701848 -0.243317 0.373131
-0.0508589 0.425381 0.208898
0.127757 0.699403 0.436525
-0.799109 -0.301069 0.204253
0.298181 0.185506 -0.0782352
0.134367 -0.907768 0.0269664
0.198898 0.0598573 0.253651
0.0921728 0.395915 0.278211
-0.0149262 0.204363 0.0250168
0.149663 -0.957619 0.0482387
0.233261 -0.622629 -0.00527725
-0.349005 -0.328899 0.067924
-0.168644 -0.165364 0.239094
0.400589 0.100719 -0.0359069
0.0780379 -0.717493 -0.00462509
0.249225 -0.17481 0.0737845
0.133913 -0.0644088 0.187762
-0.671227 -0.207764 -0.0737733
0.156655 -0.586496 0.0486856
-0.587091 -0.204035 -0.0836587
0.169305 0.742541 0.14991
0.0667128 -0.315357 0.0158978
-0.114815 0.362917 -0.109388
0.0633739 0.487077 0.00521549
-0.347715 -0.562776 -0.343027
-0.306304 0.0700744 -0.146141
-0.392504 -0.545032 -0.448667
0.0306147 0.339061 0.225026
0.142889 -0.208755 0.607253
-0.466051 0.222838 -0.477365
-0.225932 -0.102797 0.299445
0.422048 0.142015 -0.0278952
0.0565368 -0.994821 0.0901707
-0.05398 0.404104 -0.0753597
0.298664 0.312339 0.0758373
0.122587 -0.492539 0.221411
0.0523805 -0.864747 0.0593763
0.27568 -0.112052 0.0537688
-0.168724 -0.206554 0.2103
-0.144477 0.544451 0.323131
-0.681365 -0.309757 0.170918
0.137763 0.723488 0.438584
0.135228 -0.875944 0.0269856
-0.131159 0.432789 -0.139197
0.412997 0.526403 -0.0976413
0.310101 0.266381 0.0777581
0.0670021 -0.987064 0.0274773
0.419368 -0.458795 -0.0749616
0.0672947 -0.908736 0.02764
0.0578816 0.506579 0.364893
0.0902109 -0.933088 0.0158225
0.420133 -0.455176 -0.108392
0.380536 0.202078 0.282667
0.602963 0.370229 -0.203071
0.0865264 0.028304 0.137399
0.438731 -0.427744 -0.0805072
0.100211 -0.906456 0.116883
0.0874363 -0.785835 0.0136468
0.0164314 -0.0629776 0.00944656
0.61008 -0.330483 -0.108196
0.00129935 0.0720448 0.388539
-0.0496237 0.499837 0.254621
0.137871 -1.00177 0.102068
0.152966 -0.543912 0.0271131
0.301016 0.265242 0.0871424
0.00710091 -0.530299 0.00351256
0.176919 0.232845 -0.0525576
0.155467 -0.565187 0.0487349
-0.0898312 -0.651509 -0.0804909
-0.37168 -0.186926 -0.137537
0.422624 0.122435 -0.0329581
-0.0212271 0.258148 0.168317
-0.235123 -0.338416 0.0411232
0.0387269 -0.31968 0.45728
-0.207403 -0.295395 -0.0179279
0.570629 -0.359979 -0.111536
0.158985 -0.19305 0.598248
0.145823 -0.704805 0.0270392
0.265371 -0.657243 0.127411
-0.000833877 0.771581 0.313307
-0.232506 -0.0323072 0.35012
0.129369 -0.383699 0.0240881
-0.0327539 0.610808 -0.171641
0.119742 0.398861 0.482091
0.13021 -0.480341 0.257118
-0.305603 -0.582789 -0.31764
0.0224517 0.270445 0.481717
0.152694 -0.957059 0.0589043
-0.0196059 -0.162536 -0.136631
0.188155 -0.731728 0.101339
0.223144 -0.68668 0.155744
0.0495701 -0.952413 0.0679579
-0.0361755 -0.131013 0.0176683
0.413515 0.501755 -0.0934968
-0.437672 -0.198733 0.277971
0.159335 -0.724536 0.0592056
0.0571971 -0.831517 0.0767333
0.322181 0.345261 0.0581925
0.0594616 0.345256 0.0212441
-0.0143397 -0.182485 -0.114331
-0.0371685 -0.0901816 0.275483
0.249182 -0.180083 0.0692115
0.268544 0.728368 -0.158633
-0.0242741 0.266971 0.0179253
0.0716792 -0.984344 0.106961
0.146602 -0.544293 0.0162991
0.0523245 -0.616373 0.0345931
0.180035 -0.735109 0.0908208
0.0372424 -0.223015 0.0198932
0.0238571 -0.0541373 0.0179396
0.558189 -0.557304 0.422957
-0.017733 -0.127074 0.272819
0.514157 0.105706 0.106335
-0.257456 -0.585064 -0.269099
-0.0874493 0.272387 -0.101091
-0.0939307 -0.405576 -0.0357133
0.506392 -0.563312 0.404917
0.177128 0.335909 -0.0515944
0.598061 -0.580688 0.468291
0.259561 0.0864477 0.0787336
-0.628168 -0.303744 0.14987
-0.335829 -0.328499 0.0376448
0.154843 -0.0917237 -0.0203965
-0.824664 -0.292251 0.218256
0.456507 0.287472 -0.142073
0.831349 -0.157759 -0.0917253
0.0674075 -0.416541 0.044608
-0.029848 0.437507 0.276363
0.0267123 0.652264 -0.207548
-0.0249614 -0.495099 -0.0504048
0.315 0.359205 0.0533861
0.15638 0.30328 -0.0560712
0.0155525 -0.236415 0.153896
0.11226 -0.571677 0.190733
-0.0532083 0.524563 0.26724
0.573579 -0.575859 0.476576
0.0104171 -0.171402 0.655968
0.0483275 0.664848 0.318693
0.000576568 0.786877 0.39624
-0.0874059 -0.36128 -0.00936288
-0.0180877 -0.0365299 0.334571
-0.20923 -0.00950157 -0.0320379
0.436 0.370187 -0.0892192
-0.0401267 -0.689624 -0.0904461
0.0515011 -0.291672 0.0736123
0.14729 -0.0700237 -0.0347685
-0.280411 -0.338408 0.0519317
-0.314925 0.0643325 0.418461
0.437741 -0.585605 0.291829
0.0595717 -0.954475 0.0955325
-0.0200064 -0.0903656 0.303101
0.449488 -0.438813 -0.0825531
-0.411549 -0.088344 -0.157021
0.0501957 -0.897608 0.0676912
-0.568405 -0.208345 0.354637
0.117623 -0.959696 0.0166843
-0.666029 -0.406032 0.0547365
0.425011 -0.435856 -0.109538
0.340435 0.502512 0.0792909
0.249139 -0.0645987 0.0682085
0.396781 -0.445131 -0.0993805
-0.212026 0.589883 0.334853
-0.293837 -0.204478 0.168087
0.194586 0.508269 -0.0718571
0.0490109 0.398059 0.550637
0.122277 -0.495464 0.00629339
-0.449917 -0.0947552 -0.235656
0.281373 -0.559651 -0.0142666
-0.0443781 0.156525 -0.101279
-0.278045 -0.326955 0.0578509
-0.0015 -0.155638 0.22391
-0.0563219 0.456368 -0.10363
0.108553 -0.411296 0.322323
0.19674 -0.592549 -0.0132733
-0.282637 -0.317624 0.0265756
-0.0717283 -0.407787 -0.0639704
0.12151 -0.415336 0.357219
0.426357 0.322973 -0.0948835
0.13816 -0.538979 0.202784
0.0811032 0.349552 0.270373
0.0207199 -0.0625464 -0.00636333
0.58368 -0.349749 -0.0892032
0.4312 0.186818 -0.055928
0.141803 -0.327904 0.443605
0.0642883 -0.92512 0.0303619
0.129334 -0.0506504 0.207053
0.0571683 -0.832861 0.0772469
0.0926355 0.18597 0.232845
0.455264 0.0477781 0.0911672
0.192883 -0.293136 0.0518739
0.139127 -0.291376 0.506683
-0.445203 0.182302 -0.398237
0.0476853 -0.154554 0.0295872
0.105013 -0.472059 0.248232
0.149644 -0.968088 0.0482235
-0.509933 -0.0403763 0.16415
0.347445 -0.522192 -0.0561613
-0.508797 -0.318891 0.0926008
0.499584 0.0673819 0.0943963
0.641539 -0.588011 0.561227
0.0809243 0.175861 0.23162
-0.122248 -0.338437 -0.0144039
0.0757139 0.132823 0.0687608
0.475256 -0.423024 -0.114712
0.00103174 -0.202405 0.0344725
0.0822739 -1.01805 0.113172
0.128351 -0.43064 0.0715069
0.0271837 -0.247688 -0.057804
-0.44708 -0.103741 -0.221085
0.387197 0.231942 -0.12333
0.513408 0.0885227 0.0830435
-0.258273 -0.612424 -0.244186
-0.0778275 0.249547 -0.0938189
0.117558 -0.970603 0.0167765
0.0458851 -0.280757 -0.0118637
0.133593 -0.928992 0.0269552
0.284059 0.166784 0.0779437
0.0442125 0.225404 0.156351
-0.261844 0.0225645 -0.0779592
-0.467381 -0.0829283 0.17408
0.341965 0.526816 0.0826483
-0.175053 -0.144212 0.252542
-0.366123 -0.131099 -0.117755
-0.0583608 0.528237 0.267344
-0.0462403 0.636773 -0.179827
-0.438603 -0.111067 0.176806
0.244729 -0.679277 0.114972
0.143743 -0.562197 0.012067
-0.351365 0.581264 0.0252809
0.0588435 0.619731 0.313077
0.23694 0.0441869 0.0875541
0.0122359 -0.16231 0.660664
0.0784213 0.0255426 0.162059
0.0882973 -0.981 0.115142
-0.0403965 0.461155 0.218562
0.0675771 -0.629075 -0.00815712
0.0775093 -0.831597 0.10375
0.202854 -0.67868 0.0947853
0.0651848 -0.0270275 0.043148
-0.147109 -0.0630643 -0.0178503
0.531277 -0.549781 0.407827
-0.0185523 -0.207069 0.197509
-0.0879509 -0.394779 0.0687613
0.0558509 -0.416605 0.0451144
0.18204 -0.372456 0.0466811
-0.482357 -0.339277 0.0612757
-0.21878 -0.275005 -0.0728768
0.15212 -0.810035 0.0699416
0.213941 0.574795 -0.0370064
-0.13489 -0.326965 -0.0134343
0.152146 -0.997827 0.0586301
0.20615 -0.314011 0.0527405
0.0242597 -0.576104 0.0175088
-0.36256 0.593301 0.0297821
0.136286 -0.544909 0.168948
-0.0851613 -0.218058 0.164534
-0.223804 -0.338419 0.0384549
-0.511933 -0.349451 0.0616485
0.143343 -0.540067 0.0138326
0.809296 -0.174691 -0.0995899
0.0288355 -0.561653 -0.0343485
0.0400787 -0.349627 0.414651
-0.220404 -0.276075 0.153611
-0.0127357 -0.484128 0.0440176
0.0544197 -0.0430507 0.105532
0.101318 -0.866619 0.1148
-0.0476035 -0.119335 0.0152825
-0.420253 -0.523149 -0.484059
0.121499 -0.916475 0.113068
0.0210046 -0.286472 0.474709
0.0752181 0.171376 0.205748
0.0121149 0.416952 0.274173
0.182445 -0.349837 0.0456395
0.0312168 0.0629573 0.0556712
-0.114896 0.0328123 -0.656005
0.354445 -0.592752 0.250172
0.0303432 0.696419 0.319027
0.126928 -0.494123 0.273072
-0.00746813 -0.552747 -0.0015763
0.420611 -0.444595 -0.110142
0.269837 -0.000253128 0.0904325
-0.011408 0.00346341 0.353195
-0.07758 0.261339 -0.094064
-0.0156708 0.0371621 0.341891
0.0495568 -0.996227 0.0678355
0.0982688 -0.294448 0.0686096
0.235588 0.0902155 -0.0377365
0.0870179 0.0161661 0.135535
-0.0429696 0.112116 -0.0662091
-0.519355 -0.362112 0.0516467
0.16399 0.0733168 -0.0346571
0.146281 -0.112172 -0.00987635
0.354816 -0.471128 -0.0805112
0.558397 0.126246 0.11944
-0.0896893 -0.644989 -0.132979
-0.0870611 -0.383029 0.110717
0.0676592 0.434819 -0.00181346
0.013301 0.108664 0.13249
-0.420832 -0.129992 0.175667
0.434901 0.361987 -0.0868216
0.0226864 0.0146554 0.0754955
0.13787 -0.862123 0.0284624
0.395408 0.0478208 -0.0137503
0.176279 0.27636 -0.0386357
0.0847107 -0.213444 0.0165576
0.160123 0.484237 0.0187018
0.132295 -0.545149 0.212803
0.0915011 0.396064 0.266909
0.404264 -0.459797 -0.107459
0.118991 -0.899757 0.113819
-0.444584 -0.0709848 -0.168611
-0.0928803 -0.0702904 -0.255777
-0.326261 0.567592 0.0229312
-0.248757 0.0136547 -0.0679104
0.128955 -0.458683 0.0711912
-0.124172 0.0544731 -0.579883
0.0674051 -0.843459 0.0297189
0.654861 -0.293803 -0.106637
0.351917 -0.516584 -0.0561672
-0.0062792 -0.280141 0.479259
-0.0981133 0.316795 -0.120616
0.417323 0.527645 -0.10964
0.349307 -0.0505488 0.0362619
-0.106403 -0.0430211 -0.290707
0.313827 0.146734 0.276579
-0.409248 -0.207777 -0.102487
-0.419643 -0.543837 -0.471853
0.0191389 0.648152 -0.204459
0.615288 0.17846 0.13777
-0.671155 -0.309909 0.143514
-0.119609 0.0464229 -0.549032
-0.107957 -0.103424 -0.231364
-0.0479064 0.437771 0.207499
0.218563 -0.202603 0.0456013
0.534973 0.111527 0.091776
0.155062 -0.543787 0.0379341
-0.0170321 0.101575 -0.0760352
0.152489 -0.883707 0.0590411
0.150146 0.276083 -0.0417757
0.0932035 0.196551 0.234606
0.628981 -0.588117 0.541221
-0.0253924 -0.131173 -0.144618
0.0595221 -0.810547 0.0790096
0.116998 -0.315843 0.0269352
-0.343211 -0.547824 -0.386064
0.0968853 -0.19584 0.101561
-0.159559 -0.611688 -0.165686
0.06228 -0.327 0.0471144
-0.315011 -0.177372 -0.0988536
-0.120683 -0.62076 -0.122554
0.0489237 0.174771 0.058
-0.0458317 -0.372147 0.0263563
-0.397813 -0.105257 -0.1293
-0.369296 -0.168088 -0.138055
0.021183 0.0608536 0.119334
0.271083 -0.628976 0.185785
0.100154 0.884939 0.0287261
0.123302 0.303992 0.396085
0.0983477 -0.225201 0.010549
-0.0560896 0.17573 -0.103256
0.00754917 0.0359096 -0.0416835
0.13806 -0.281728 0.0366517
-0.0126599 -0.161563 0.202924
-0.0769736 -0.130548 -0.166378
0.0985109 -0.662608 0.0056532
0.00941875 -0.730707 -0.0279491
0.0334891 -0.234466 -0.0315016
-0.388509 -0.167742 0.163002
0.163696 -0.660464 0.0484715
0.0819248 -0.316093 -0.0145409
0.257757 0.658635 -0.0926179
0.167146 0.389075 -0.038648
0.0518515 0.28668 0.0449952
0.306605 -0.0909197 0.0464021
0.0500619 -0.16422 0.0291627
0.328445 -0.605091 0.229445
-0.355997 -0.21606 -0.0992616
-0.146291 -0.0622803 0.0032744
-0.0521888 0.823896 0.382136
-0.0599504 0.203541 -0.0781901
-0.306456 0.064084 -0.108751
0.178643 -0.395227 0.05898
0.0501168 0.358472 0.522427
-0.203296 -0.604421 -0.175525
-0.287827 0.0188824 0.39808
-0.15357 0.0327715 -0.460568
0.629005 -0.579608 0.514141
-0.0126347 -0.689504 -0.0204746
0.13961 -0.327893 0.432939
0.0622544 0.333909 0.0232591
0.0187827 0.137775 0.0366051
0.629595 -0.286133 -0.108773
-0.113913 -0.383467 0.0914597
0.127227 -0.0607899 0.200205
0.0153577 0.189839 0.444325
-0.147931 0.0409728 -0.561344
-0.371757 0.673525 0.351075
0.106797 -0.283232 0.0582136
0.507869 -0.568067 0.402808
-0.188013 -0.0306696 -0.0205757
0.122626 -0.606464 0.00368755
0.0550347 -0.832277 0.0645512
-0.272475 -0.328269 0.0209675
-0.678899 -0.421181 0.0514819
-0.0992312 -0.644757 -0.138833
0.425235 0.146656 -0.0356131
0.0354848 0.20224 0.0670987
0.252585 -0.157333 0.0512469
0.261164 -0.153142 0.0757112
-0.175542 -0.0433349 -0.0255926
0.15551 -0.714371 0.0485128
0.392888 -0.569589 0.281579
-0.558827 -0.320368 0.124501
0.0348035 0.314845 0.213083
-0.202467 -0.599 -0.205321
-0.0590712 -0.652736 -0.0616123
0.0419413 -0.0266544 0.0398763
-0.0146874 0.053088 0.352645
0.354328 -0.627027 0.205023
0.0157845 0.0243745 0.0941837
-0.482256 -0.07702 0.163986
0.194565 -0.338805 0.0848685
-0.0990784 0.765133 -0.251506
0.154827 -0.436243 0.0380611
0.249503 0.114181 -0.0673771
-0.106547 -0.416725 -0.0542525
-0.0579797 0.449411 -0.0814299
0.172033 -0.637421 -0.00771355
-0.349933 -0.146147 -0.111635
0.407832 0.0978269 -0.00510821
-0.224837 0.607331 0.334219
0.162931 0.00732875 -0.0477741
-0.124785 -0.349883 -0.00730971
0.0784565 0.183886 0.0643712
0.0740035 -0.784819 0.0182209
0.0248215 0.248479 0.171281
0.0213345 -0.552043 0.0108525
-0.206799 -0.625995 -0.172321
0.466749 -0.554264 0.328541
-0.166641 -0.314397 0.107434
0.433984 0.26976 -0.080964
0.0222041 0.670187 -0.216172
0.208504 -0.635827 0.0154627
-0.283685 0.00979781 0.385835
-0.0179282 0.0358104 -0.0482517
-0.0870043 -0.338453 -0.0106719
0.119069 -0.361123 0.0191563
0.104781 -0.371392 0.402435
-0.0925965 -0.197141 0.193459
0.15249 -0.964773 0.0579693
-0.24791 -0.0406077 0.339251
0.616779 -0.327693 -0.0917779
0.148662 -0.4796 0.0272016
0.0219153 0.421787 0.276757
0.386061 -0.471512 -0.1041
0.0764832 -0.596267 0.00143334
-0.635645 -0.315157 0.135592
-0.0411461 0.383088 0.186249
0.0331544 -0.0536933 -0.00942344
-0.315443 -0.58112 -0.297765
0.309304 0.346288 0.0716229
0.820112 -0.154394 -0.102827
0.284336 -0.552592 -0.0672504
0.0843576 0.0425085 0.14081
0.623696 -0.307981 -0.111884
0.127571 -0.29124 0.502787
0.183713 -0.149751 0.72228
0.0742923 0.30508 0.247598
-0.289741 -0.326944 0.0596592
-0.133127 -0.0618928 -0.0211443
-0.101675 -0.0790611 -0.266358
0.0323328 0.215558 0.166143
0.0167059 -0.573048 -0.0332635
-0.135679 -0.361069 -0.0764504
-0.110591 -0.0956056 -0.214023
0.128511 -0.379189 0.411667
0.113606 -0.282981 0.0418856
-0.218596 -0.598101 -0.222995
-0.00534957 -0.217476 0.188731
-0.118751 -0.650475 -0.100489
0.0123365 0.66904 -0.209016
0.150423 -0.270469 0.0348971
-0.0720459 -0.208045 0.185807
0.127786 -0.949104 0.0218157
0.29748 -0.649984 0.19112
0.0828656 -0.036536 0.118058
-0.321432 -0.32844 0.0358933
0.146226 -0.643075 0.0789821
-0.0312563 0.0647443 -0.0559851
0.0136583 -0.0401243 0.0114543
-0.107484 -0.639949 -0.0952005
-0.00920157 -0.0362176 0.328344
0.0849536 0.517848 0.313067
0.093884 0.384 0.266631
0.0912472 -0.563152 0.161908
0.034628 0.120507 0.0674803
0.497211 -0.391472 -0.11631
-0.0752875 0.719995 -0.211475
0.0860856 -0.607672 0.00852555
0.111277 -0.573392 0.00293976
0.110025 -0.428547 0.00887333
0.00934272 -0.71024 0.000207803
0.469891 -0.552931 0.358272
0.337411 0.16091 0.266971
-0.0869547 -0.630341 -0.0971291
0.00661907 0.74496 0.379763
0.309584 0.165426 -0.0686576
-0.00965803 0.119584 0.131517
0.261383 -0.588973 -0.0439555
-0.413923 -0.123885 0.177358
-0.303936 -0.317723 0.0367099
0.114701 0.598683 0.493643
-0.0719355 -0.663125 -0.0658939
0.220566 -0.650411 0.148428
-0.00239252 0.169515 0.154326
0.147934 -0.0898021 -0.00431357
0.0624869 0.714627 0.0229723
0.0271941 -0.507181 0.0710043
0.51328 0.100143 0.0848579
0.0375056 0.290992 0.201271
-0.00789899 -0.00716237 -0.0128344
0.0352389 -0.395653 0.00427907
-0.0333539 0.555808 -0.135955
0.602629 -0.307883 -0.110115
-0.474632 -0.118536 -0.170462
0.350864 0.214129 -0.110138
-0.143312 -0.0504872 -0.0270843
0.200642 -0.338936 0.0806669
-0.149715 -0.0272979 -0.347664
-0.123395 0.527429 0.322171
0.214381 -0.304485 0.0593384
0.511416 0.0925411 0.107782
0.102286 -0.500691 0.00948603
0.542325 0.326827 -0.182197
-0.539565 -0.315299 0.121497
0.520227 0.311731 -0.163621
0.204974 0.0678309 -0.0512979
0.0123687 0.143676 0.432581
-0.00295355 -0.155558 0.235491
0.0599096 0.0681773 0.0624464
0.0627643 0.47484 0.00563053
-0.133905 0.0303243 -0.587627
0.319781 0.426781 0.0664021
0.428109 0.166762 -0.0457755
0.0507491 -0.594709 0.0294635
0.459832 -0.554744 0.319469
0.30008 0.165002 -0.0865589
0.82 -0.164812 -0.104482
0.117687 0.605301 0.521317
-0.415179 -0.137198 0.153531
0.107918 0.732883 0.382909
0.124562 -0.504795 0.265537
-0.0899243 0.329819 -0.110061
-0.0338531 0.444763 0.267128
0.0856424 0.0519413 0.175325
0.144409 -0.885019 0.0914683
-0.494227 -0.0549389 0.170115
-0.138163 -0.327589 0.133675
-0.326155 0.558483 0.0114961
-0.597859 -0.397083 0.0554811
-0.209905 -0.0145669 -0.0517917
0.00735285 0.100744 0.405331
0.0991269 -0.558104 0.00736581
-0.0547069 0.341387 -0.0377163
0.236026 -0.639779 0.152574
-0.359643 -0.145099 -0.132468
0.144546 -0.630227 0.0813339
0.152467 -0.876936 0.0596459
0.239868 -0.145467 0.055704
0.0436248 -0.733563 0.0313955
-0.13091 -0.382339 -0.0613211
0.0606517 -0.379549 0.398925
0.15397 -0.262654 0.519395
-0.0102259 -0.518925 0.000427365
-0.152544 -0.0482368 0.00223347
0.000747709 0.622744 -0.172113
0.0284539 -0.00765728 0.0714328
-0.624584 -0.309616 0.120674
0.110465 -0.22671 0.0306491
-0.0947088 -0.102801 -0.235463
-0.191811 -0.0303427 -0.0316611
-0.183818 -0.285309 -0.0869317
0.115892 -0.117642 0.13885
0.212827 -0.315784 0.0651331
0.0591843 -0.237805 -0.0393939
0.612539 -0.297427 -0.105318
0.130746 -0.874987 0.106019
0.0836581 -0.430928 0.0104658
0.431912 0.226944 -0.0731568
0.146306 -0.632288 0.0791256
0.528715 0.321557 -0.177805
0.0903389 -0.899336 0.0158654
0.39584 0.0475688 0.0158467
-0.648632 -0.290005 0.124951
-0.14789 0.0493464 -0.584213
0.102036 -0.470056 0.251843
0.0141262 -0.213171 0.0251119
0.108554 0.787539 -0.280051
0.121115 -0.306595 0.480403
-0.152544 -0.186532 0.220355
0.285973 -0.528973 -0.0663779
0.268323 -0.0321755 0.0903856
0.138097 -0.631621 0.0899925
0.648035 -0.587117 0.547317
0.034344 -0.211572 0.0177924
0.0523797 -0.896757 0.0798099
0.143611 -0.92724 0.0376237
-0.016461 0.11259 -0.0755323
0.155093 -0.575915 0.0270691
-0.0338224 0.574245 -0.144703
0.566432 0.288387 0.278056
-0.281816 -0.215818 0.167442
0.132461 -0.727613 0.0162784
0.620907 0.308712 0.273128
-0.174581 -0.637624 -0.141356
0.155231 -0.607971 0.0594915
0.0954603 0.326109 0.254738
0.109332 -0.750763 0.00764283
-0.00845091 0.119859 0.421952
-0.148235 0.0376339 -0.531992
0.0992864 -0.349824 0.00612171
0.0920069 -0.810744 0.107721
-0.176555 -0.154846 0.248661
-0.0369789 -0.450645 -0.0501723
0.387976 0.00756736 0.0153783
0.137183 -0.264051 0.544891
0.0147762 -0.552427 -0.0382035
-0.131295 -0.0640411 -0.272757
0.0743133 -0.359421 0.407696
-0.260444 0.00736651 0.377899
0.133383 -0.619227 0.112443
0.226539 -0.273301 0.0759891
0.0377197 -0.0587624 0.049108
0.419368 0.201615 -0.0451963
0.0645717 -0.0151769 0.0452701
-0.376792 -0.186868 -0.128579
0.0789373 -0.820776 0.102843
-0.662931 -0.202826 -0.0639275
0.264192 -0.0638336 0.0797757
-0.23821 -0.605027 -0.200162
0.156751 -0.767163 0.0591752
0.430488 0.259202 -0.0662672
-0.572264 -0.0810976 -0.206219
0.297957 -0.123658 0.0576232
0.466872 0.0578437 0.0942013
-0.0329347 0.00461509 0.337317
0.0187926 0.161341 0.0366384
-0.409648 -0.158632 -0.1439
0.147114 -0.813757 0.0842171
0.631235 -0.575957 0.553248
0.106967 0.664755 0.427787
0.243964 0.0999315 0.252801
0.240874 0.0799944 0.0995157
-0.287707 0.0401208 -0.0978173
0.0962707 0.600099 0.476792
0.0312901 -0.405675 0.0417784
0.379251 0.194874 0.282
0.151718 -0.262597 0.508808
0.43448 0.259386 -0.138374
0.0903101 -0.500419 0.0152807
0.483165 0.252583 0.275701
0.179914 -0.174762 0.658189
-0.337965 -0.185542 0.259089
0.175813 -0.326608 0.0825069
0.0464549 0.300957 0.487688
0.0281224 -0.286715 0.506587
0.174635 0.0295027 -0.0476893
-0.2168 -0.112688 0.291816
0.154351 -0.294629 0.0627941
0.145783 -0.165716 0.672381
-0.142044 -0.360424 0.109887
0.170913 -0.197841 0.62676
-0.134449 -0.0728843 0.00825731
-0.215178 -0.214132 0.214565
0.363429 -0.494301 -0.0565712
0.523965 0.318992 -0.176175
0.0850397 0.468277 0.285157
-0.182217 -0.620635 -0.197019
-0.433331 -0.204558 -0.0911653
0.100511 0.259415 0.0656032
0.137146 -0.415011 0.0273496
0.139424 -0.544723 0.190568
-0.507211 0.289821 -0.278288
0.259403 0.063204 0.0786232
-0.140254 0.407261 -0.135971
0.0581869 -0.430379 0.00656848
0.260921 0.113692 -0.067376
0.0611869 -0.132973 0.0158784
0.163322 -0.219325 0.584117
0.0783803 0.0106528 0.152444
0.0596376 -0.930981 0.036252
0.122107 -0.650829 0.00494005
0.0672176 0.581677 0.320605
0.144374 -0.522904 0.0163207
0.151024 -0.419523 0.0703861
0.274461 -0.635381 0.139548
0.34812 0.175086 0.285264
0.443845 0.235946 0.278939
0.0634691 -0.991384 0.030788
0.303413 0.185171 -0.0893605
0.339149 -0.603491 0.188916
0.0488853 0.151118 0.0579789
-0.026217 -0.474803 0.0585621
0.110584 -0.484451 0.00632235
0.0524139 -0.417595 0.00397277
0.063084 -0.327128 0.088248
0.0577592 -0.881067 0.0895925
-0.0300123 0.0258598 0.348333
0.0309499 -0.192298 0.0403664
0.101685 -0.172457 0.116936
-0.459941 -0.0365501 -0.289523
0.133733 -0.562043 0.0062168
0.162773 0.401861 -0.0522365
-0.42824 0.698032 0.354096
-0.573147 -0.20349 -0.0749459
-0.450421 -0.0721824 -0.256783
-0.0239702 -0.17779 0.223159
0.0717272 -0.338379 0.0123253
0.633731 -0.307992 -0.109429
0.285272 -0.64888 0.140054
-0.11787 -0.371467 -0.0788771
0.00498811 -0.166593 0.658952
0.142024 -0.31664 0.0602504
0.104411 -0.434995 0.290024
-0.0414645 0.286043 0.167399
0.22815 -0.236556 0.0531005
0.0269701 -0.383888 0.00925427
0.0237895 -0.276477 0.520904
-0.223863 -0.0640504 0.298933
0.482339 -0.416525 -0.0893584
0.154388 0.200176 0.323365
0.0822472 -0.907253 0.0188201
-0.00217672 0.0997805 0.134225
0.273317 0.743019 -0.1794
0.167711 0.0218617 0.225155
0.0673557 -0.919968 0.0276907
0.139469 -0.960016 0.098396
-0.38208 0.139403 -0.252276
0.175131 0.413536 -0.0441109
0.449941 -0.427669 -0.0809005
0.139747 -1.01217 0.0999403
0.142118 -0.462176 0.0194005
-0.347723 -0.548307 -0.343461
0.107644 -0.583309 0.175833
-0.00415765 0.521424 0.245081
-0.145173 -0.349715 0.0171506
0.250353 -0.589163 -0.0448176
0.139703 -0.555472 0.179605
0.160244 -0.76672 0.0806083
-0.413795 0.6962 0.355661
0.0292653 -0.0110989 0.0720656
0.164127 0.182915 -0.0646469
-0.271941 0.0406291 -0.112419
-0.339187 0.58076 0.0233495
0.276325 0.0739728 0.101101
0.0719805 0.158681 0.0596445
-0.368739 0.215402 0.49944
0.00619347 0.373429 0.251196
-0.123621 0.385869 -0.11726
0.113665 -0.629645 0.122184
0.260135 0.030796 0.111189
0.196262 -0.155682 0.676904
-0.326064 0.0853411 0.424683
-0.0240888 -0.449427 0.0879339
-0.0541757 0.553128 0.268747
-0.151415 0.516493 -0.174314
0.36696 -0.601747 0.259611
-0.165739 -0.649611 -0.148591
0.455368 0.0367656 0.0924096
0.590109 0.13575 0.117644
0.484232 0.289179 -0.145401
0.160449 -0.200722 0.629603
0.27092 0.682939 -0.101439
-0.133228 -0.0586483 -0.286773
0.152461 -0.522472 0.0488427
0.109387 -0.924304 0.0152546
-0.113631 -0.197115 0.199696
-0.244981 0.0334677 -0.0600141
0.0564037 -0.841709 0.048084
-0.0187291 0.0888472 0.39224
-0.00553595 -0.687744 -0.0169669
0.11061 -0.473272 0.00635683
0.0563216 -0.212456 0.0515501
0.147588 -0.715048 0.112503
0.129927 -0.714523 0.0967096
0.270733 0.0746739 0.0810552
-0.0115977 -0.1732 -0.12579
-0.0285853 0.0110422 0.330624
0.164582 0.0405453 -0.0531621
0.172057 0.643291 0.112217
0.0708021 -0.349893 0.0270803
0.0816288 -0.0477133 0.118062
-0.241682 -0.279525 -0.0373749
-0.195442 0.438491 -0.00281445
-0.541725 0.333619 -0.276133
0.0856184 0.528125 0.315093
-0.0927496 -0.0797301 -0.253882
0.560712 -0.359976 -0.115083
0.127471 -0.169616 0.00771088
0.0567808 -0.810416 0.0634131
-0.0157391 0.0140371 -0.0326245
-0.395323 -0.200767 -0.107655
0.0683867 -0.326728 0.0280707
0.0979755 0.246749 0.0637699
0.151532 -0.565448 0.0596357
-0.214347 -0.625885 -0.18043
0.0382451 0.159084 0.135693
-0.00361112 -0.722323 -0.0324312
0.433189 0.372797 -0.0868997
0.178951 0.354317 -0.0497507
0.115849 -0.524181 0.00480205
-0.131465 0.0246585 -0.528843
0.424552 0.513688 -0.0976509
0.0711307 0.342547 0.0285184
0.425224 0.488867 -0.0925773
0.0547589 0.412531 0.0112185
0.220405 -0.62448 -0.0171171
0.399381 0.200867 0.270408
0.301813 -0.627909 0.207915
0.124818 -0.389275 0.40036
-0.241129 -0.271624 0.147616
0.0501184 -0.908595 0.0677115
-0.0231787 0.422181 0.270267
0.333704 -0.637173 0.208414
-0.0629563 -0.686395 -0.0727277
0.458232 0.278032 -0.147488
-0.653824 -0.287971 0.13008
0.429173 0.218115 0.269923
0.0332872 -0.610629 -0.0110279
0.125427 0.696696 0.433755
0.0479208 -0.224353 0.0195055
0.13476 -0.897147 0.026972
0.420648 0.101369 -0.0243395
0.186796 -0.165998 0.678643
0.016023 -0.256186 0.548821
-0.0153066 -0.427467 0.0792363
0.0882453 -0.939027 0.114762
0.452123 0.273939 -0.144473
-0.431717 -0.538464 -0.492968
0.406693 -0.476821 -0.0966675
0.161645 -0.0147733 -0.0435176
0.0593456 -1.00753 0.0949616
-0.332883 -0.212996 -0.10687
0.272485 0.0422853 0.101122
-0.0463797 -0.250195 0.486315
-0.504955 -0.0456667 0.166081
-0.0202834 -0.441763 0.043752
-0.122009 -0.371984 -0.0424392
0.139594 -0.875784 0.097884
0.00429397 0.450853 0.20411
0.00629696 -0.493725 0.073404
0.144832 -0.874413 0.0376707
0.146118 -0.315731 0.0497179
0.0727883 0.258827 0.24815
0.236867 0.104074 -0.0630229
-0.479693 -0.123886 -0.184123
0.0468883 0.472581 0.332848
0.0950979 0.597237 0.471216
-0.192486 0.440835 0.00259017
0.192969 0.513067 -0.0698496
0.152373 -0.79944 0.0699589
0.0489144 0.312123 0.498971
0.101606 -0.489107 0.00898595
0.211967 -0.306928 0.0804661
0.310379 0.277435 0.0785427
-0.0655296 0.426043 -0.0746795
-0.136533 0.019676 -0.437475
-0.143991 0.0481768 -0.604664
-0.144262 0.469059 -0.145764
0.261429 -0.0849488 0.079792
-0.812768 -0.292277 0.216105
0.765587 -0.215718 -0.0938013
0.174228 0.254365 -0.0386341
0.323336 -0.0906603 0.0492669
-0.0517403 -0.663931 -0.0529944
-0.185805 -0.0327421 -0.0195855
-0.000843672 -0.173234 -0.122978
0.0938637 -0.516819 0.215389
-0.0891213 0.296256 -0.099128
-0.0342419 0.271933 0.0256924
0.194466 0.519592 -0.00552952
-0.106604 -0.394325 -0.0401405
0.193657 0.539456 -0.0120291
0.320891 0.345547 0.0688013
0.12774 -0.960011 0.0218281
-0.243051 -0.586171 -0.248423
0.26952 0.0286789 0.0845549
0.105823 -0.270371 0.0251047
0.406888 -0.587763 0.299376
-0.151424 0.491781 -0.154958
0.589827 0.156862 0.107168
0.126066 -0.08502 0.171821
-0.100368 -0.113002 -0.21323
0.122385 -0.0958568 0.171954
0.148423 -0.768224 0.0377517
-0.420184 -0.326816 0.0776456
0.149364 -0.406336 0.0364621
0.1549 0.316616 -0.042732
-0.405667 0.687469 0.329883
-0.465779 -0.0473899 -0.298605
0.0663931 -0.392859 0.374264
0.168331 0.197325 -0.0641611
0.268176 -0.0288491 0.0882037
0.107276 -0.24774 0.0203584
-0.0618392 0.686776 -0.199339
-0.434675 -0.103083 0.152504
0.136319 0.283931 0.363125
0.582355 -0.575979 0.485437
0.08956 -0.471405 0.29864
0.107245 -0.850477 0.0137062
-0.627499 -0.397093 0.0578901
0.199833 -0.635213 0.0258128
0.0750947 0.422907 0.0057104
-0.248608 -0.274067 -0.040752
-0.177404 -0.317368 -0.0687192
-0.0056536 -0.066128 0.306947
0.621901 0.180448 0.122431
-0.0241596 0.0574328 0.3702
0.118741 0.298691 0.365125
0.0986813 -0.833432 0.111413
0.0198086 0.417259 0.282504
-0.485931 -0.349387 0.0757496
0.0495381 -0.292488 -0.0139231
0.0894696 -0.977859 0.0153601
-0.0434613 0.539213 -0.140732
0.151592 -0.490251 0.038036
0.307096 -0.555144 -0.0361667
-0.499291 -0.00977021 -0.203764
-0.00825405 0.0809213 -0.0443395
0.3826 -0.573749 0.270645
0.00436363 0.534141 0.251349
0.217604 0.569635 -0.0384973
0.665429 -0.266568 -0.108675
0.0149271 -0.00881328 -0.0274555
0.0916619 -0.174663 0.121987
0.40568 -0.014975 0.0560251
0.110548 0.366795 0.446899
-0.0665493 0.439568 -0.0886645
0.205873 0.656856 -0.117603
-0.0142485 -0.228362 0.167995
0.510493 -0.551776 0.403123
0.0511288 -0.726624 -0.0311901
-0.154315 0.538827 -0.173767
-0.458205 -0.0324261 -0.315541
-0.0356552 0.162303 -0.0994501
0.264053 -0.0317557 0.0798587
0.17628 -0.18333 0.6474
-0.428371 0.710811 0.342
0.300885 -0.554368 -0.0675728
0.435672 0.299541 -0.0866251
-0.0271147 -0.0380656 0.333355
0.424467 0.418299 -0.0919235
-0.152237 -0.314411 0.137163
0.143711 -0.220714 0.548611
-0.00196292 0.480923 0.225
-0.303584 0.0494883 0.414728
-0.202797 0.713795 -0.204548
0.0371456 -0.595424 -0.0235429
0.118246 0.295677 0.391024
0.0800837 0.467613 0.298248
-0.0633816 0.310453 -0.0106931
0.437096 -0.458136 -0.0943981
-0.00314843 0.427171 0.183382
0.0953891 -0.818189 0.0147197
0.121205 -0.874595 0.111716
-0.0505949 0.343293 -0.0295224
0.0507227 0.1728 0.131315
-0.0405229 -0.16137 -0.118922
0.11477 -0.415475 0.324899
0.178901 0.0986213 0.257947
0.154984 -0.765213 0.0524475
-0.0290248 0.431819 0.274061
0.0637757 -0.980397 0.0305981
0.0488549 0.139309 0.0580053
0.335029 -0.522893 -0.0461333
-0.0480213 0.289253 0.0136234
0.223593 -0.706789 0.121424
-0.214946 0.600909 0.33236
0.185534 0.0859475 0.268165
-0.282424 -0.263719 -0.055008
-0.313152 -0.253381 -0.0714133
0.0204926 0.18904 0.455187
-0.159732 0.549229 -0.18454
-0.0336459 0.226344 0.15819
-0.495581 0.187504 -0.453499
0.241299 -0.201014 0.0693357
-0.0485579 0.712568 0.336859
-0.00174732 -0.268832 0.106661
0.0888741 -0.739427 -0.00197947
0.384389 0.0480872 0.0149647
0.523261 -0.575779 0.409499
-0.236401 -0.0732339 0.305211
0.615131 0.173896 0.1397
0.159542 -0.627056 -0.00404621
0.0823208 -0.929101 0.0183835
-0.0328848 -0.441904 0.0451048
-0.310563 -0.570035 -0.287469
-0.464573 -0.128759 -0.16537
0.0408283 -0.0527768 0.00441096
0.229648 -0.21894 0.0866075
0.422696 0.126487 -0.0254422
-0.446349 -0.0822069 -0.239801
-0.333299 -0.570195 -0.357952
0.141803 -0.607072 0.018312
0.0959861 0.348997 0.266197
0.0851749 -0.875941 0.111944
0.0955173 -0.585499 0.160646
-0.0482155 0.403467 0.207031
0.0540448 -0.542563 0.0522696
0.22776 -0.156617 0.0568565
-0.260097 -0.338267 0.021103
0.149858 -0.259043 0.0371333
-0.113296 0.380008 -0.126292
0.773445 -0.207189 -0.0846485
0.000196637 0.157195 0.445493
0.0551549 -0.864024 0.0471691
0.152422 -0.953867 0.0584168
0.132526 -0.538072 0.220548
0.0103346 -0.671243 -0.0498328
0.155547 -0.261578 0.0665517
0.280971 0.0984352 0.0886128
-0.199088 0.0940739 -0.533816
0.121682 -0.404416 0.346323
-0.148028 0.554765 0.332288
0.150369 0.0206955 0.239138
0.0724395 -0.247512 0.0174398
