0.191469 -0.0248155 -0.161887
0.251982 0.326208 -0.0797688
-0.00304565 -0.152587 -0.310157
-0.046024 -0.751648 -0.00472827
0.0855672 -0.33484 0.264126
-0.373587 0.0212874 0.0126052
0.208047 0.191111 0.281923
-0.25127 0.396784 0.05556
0.147349 -0.245997 -0.413992
0.355157 0.0362611 0.160308
-0.0573368 -0.00484421 0.00371715
0.399336 0.0382096 0.454363
0.110162 -0.283816 0.358621
0.114798 -0.174855 -0.136484
0.00822573 -0.254916 0.0356459
-0.756885 -0.0439213 0.0228479
-0.590381 0.279885 -0.176618
0.373931 -0.0142343 0.375597
-0.0367064 0.130041 -0.437779
-0.0255566 -0.238614 -0.228382
-0.371936 -0.215744 -0.0117042
0.192113 0.11138 0.699981
0.0117602 0.198259 0.233623
-0.194995 -0.578139 -0.0720717
0.0351392 0.235776 0.267805
-0.0111598 -0.226934 0.471904
0.0869997 -0.243376 -0.108155
-0.51192 0.155781 -0.0499352
0.132992 0.0499184 0.240582
-0.0867141 0.233952 -0.0284776
0.217058 -0.281603 -0.532125
0.129129 -0.133923 0.863787
0.127301 -0.235127 -0.462141
-0.655477 0.461291 0.0478992
-0.0230935 -0.561357 0.00326813
-0.59792 0.333731 -0.178308
-0.0585261 0.501104 0.448677
-0.0123002 0.109787 0.591184
0.169129 0.325672 -0.756477
-0.568256 0.293053 -0.17677
0.0237763 -0.058648 0.0682795
0.188959 -0.121314 0.0832227
-0.223806 -0.440165 0.0669312
0.0382421 -0.346813 0.302128
0.0412027 -0.00527496 0.470173
0.0955584 -0.161029 0.813648
0.0934568 -0.177354 -0.371229
0.212953 0.0754973 0.678771
-0.292544 0.109033 0.0842909
-0.796531 -0.227513 -0.128742
-0.293285 0.108655 0.0887685
0.157494 -0.0632984 0.574952
-0.307816 0.290296 0.0219514
0.176602 -0.0316051 -0.169543
-0.762757 -0.267109 -0.145289
-0.0285032 -0.866701 -0.00600936
-0.511147 0.175322 -0.069868
0.147541 -0.0500795 0.578293
-0.127017 0.124432 0.00424339
0.0875245 -0.17912 0.445661
-0.399779 -0.501872 -0.125313
-0.0329971 0.0258759 -0.39724
-0.343768 -0.00498093 0.0162157
0.2554 0.450019 -0.0696875
-0.606173 -0.481493 0.408949
0.116117 0.51424 0.316229
-0.264858 -0.546824 -0.0779613
0.109208 -0.14108 0.869155
0.0116497 -0.8606 0.0545261
0.093128 -0.172667 -0.433749
0.0215165 0.303717 0.152498
0.415517 0.480088 0.28556
0.0949085 -0.177586 -0.239867
0.112732 -0.200283 0.050884
0.0227961 -0.310557 0.260418
-0.35344 -0.521509 -0.106113
-0.31256 0.479752 0.0654571
-0.0411299 -0.344277 -0.130134
0.269813 -0.0704936 0.344043
0.267683 0.308261 -0.0793515
-0.0017692 -0.285571 0.396581
0.0845749 -0.0143877 0.181148
0.0190981 -0.472485 0.135877
-0.0938533 -0.516741 0.0259347
0.0273405 -0.462501 -0.11363
0.619584 0.157518 0.193523
0.0325421 -0.284627 0.318091
0.208823 0.328957 0.686653
0.211789 0.344381 0.806179
0.00219115 -0.287339 0.382435
-0.624083 -0.00754547 -0.0673245
-0.326485 -0.526856 -0.106102
0.231106 0.148645 -0.178507
0.400808 0.425384 0.299827
-0.278299 -0.532744 -0.0992853
-0.532661 0.427461 0.102382
-0.000614528 -0.527896 -0.034692
-0.378379 0.0457731 -0.0148986
-0.0170744 -0.152851 -0.295904
-0.385149 -0.213811 -0.0274365
-0.015094 -0.255273 -0.231456
-0.00163476 -0.800237 -0.00244184
0.420005 0.339965 -0.0193175
-0.350419 0.303467 0.0673645
-0.0118281 -0.424725 0.00793384
0.230548 0.152319 -0.151978
0.0855096 -0.0885725 0.367613
0.0511032 -0.211281 0.669507
0.27296 0.261202 0.299803
-0.764203 -0.289379 -0.139698
0.289683 0.309627 0.291981
-0.0170576 -0.140815 0.0298776
0.0820053 -0.167373 -0.361347
0.195785 0.636947 0.40596
-0.220924 -0.560029 -0.0611144
-0.053164 -0.729216 -0.007474
0.111954 0.193102 -0.143614
0.207675 -0.272453 0.457083
-0.0460688 0.1289 -0.452291
0.193765 0.275005 0.525173
0.118912 -0.16552 -0.537248
0.368872 0.246642 -0.00108947
0.715931 0.510363 -0.184858
0.107896 0.0216015 0.197807
-0.00444224 0.1018 0.576592
-0.368661 0.425963 0.143008
-0.0348592 -0.326355 -0.152958
0.434005 0.464109 0.295605
0.279925 0.301789 0.287971
0.18143 0.116984 0.2728
0.00373608 0.184874 0.255439
0.240666 -0.0666776 0.339251
-0.329563 0.560005 0.0810355
-0.128374 -0.494003 0.0187622
0.224203 0.0814859 -0.164241
-0.0323155 -0.426344 0.13683
-0.10285 0.298421 -0.0994541
-0.219992 -0.552053 -0.0729672
0.243512 -0.172764 0.355776
0.242885 0.12075 -0.257779
0.461947 0.348504 -0.0349064
0.695664 0.233969 0.197693
-0.0300789 0.131354 0.01672
-0.00732381 -0.538421 -0.0284123
0.278851 -0.237731 0.565877
0.00763744 -0.505803 -0.069524
-0.42492 -0.484643 -0.125933
0.189776 0.0890464 0.687211
-0.0572797 0.0158413 0.0479291
-0.41388 0.709088 0.171552
-0.314421 -0.529531 -0.0975691
0.495525 0.324856 0.343555
-0.0967536 -0.623216 -0.0239264
0.109767 -0.311501 -0.311984
0.133572 -0.115568 -0.647611
-0.183595 -0.440189 -0.00415029
0.0669909 -0.210722 0.642115
-0.163691 0.575232 -0.288027
0.265548 0.238342 -0.131056
0.560611 0.420331 -0.106848
0.147031 0.0677581 0.244603
0.0623947 -0.401483 -0.166862
-0.679955 -0.585667 0.541453
0.456925 0.109597 0.138085
-0.648971 -0.505944 0.447072
-0.236721 -0.433461 0.0907208
-0.105698 -0.246443 0.0219055
0.441275 0.509912 -0.0939571
-0.0218357 -0.634757 0.0357213
-0.009296 -0.0495419 -0.356616
-0.2299 -0.54624 -0.0622853
-0.225431 0.334229 0.023514
0.1598 0.584835 0.383171
-0.427547 0.0615747 -0.00503216
-0.221245 -0.442843 0.0669776
-0.257862 0.0322227 0.0628011
0.100586 -0.108741 0.338645
-0.392045 0.367821 0.0218682
0.554528 0.0415397 0.393443
0.29592 0.325613 0.301893
-0.480136 0.803405 0.19223
0.204323 0.0586597 -0.172441
-0.0200903 -0.776731 -0.00620693
0.0834931 -0.210999 -0.12776
-0.00958899 -0.366581 0.0542101
-0.644581 -0.369109 -0.167669
-0.386544 -0.513117 -0.127055
-0.588845 0.41964 0.0447616
0.00741485 -0.676024 0.0169369
0.148993 0.231712 -0.517768
-0.25578 -0.0847445 0.0350003
-0.26115 -0.546683 -0.0928437
-0.0584883 -0.0853933 -0.0224666
-0.171466 0.168437 0.0174577
-0.0643117 0.293544 -0.597872
0.0142499 -0.433781 0.169242
-0.433685 -0.160617 -0.0202036
0.179526 -0.0561381 -0.163143
0.136251 -0.154623 -0.15058
-0.180247 -0.437709 0.00208859
-0.296613 0.271048 -0.00985333
-0.755371 0.0866112 -0.0540888
0.103245 -0.125763 0.513664
0.131108 0.263862 -0.168559
-0.386797 -0.402744 0.189339
0.114317 -0.143558 0.85304
0.0359611 -0.426616 -0.142568
-0.788528 -0.276896 -0.135838
0.0979109 -0.0700443 -0.634451
-0.671184 -0.34504 -0.185251
0.31568 0.350925 0.302509
-0.621496 -0.374952 -0.159082
0.292469 -0.185027 0.330736
0.126159 -0.0794213 0.540704
-0.0154183 -0.0465739 -0.359216
-0.234682 -0.366685 0.00334568
0.585784 0.465989 -0.102971
-0.0219906 -0.447504 0.0124907
-0.260917 0.4062 0.0769104
-0.439859 -0.417051 0.211345
-0.201837 -0.414024 0.00438512
-0.0588085 -0.728368 0.00521557
0.745389 0.231952 0.220313
0.100981 -0.184979 -0.213793
-0.767088 -0.260093 -0.14717
-0.00490595 -0.311661 0.0482875
-0.399277 -0.404904 0.194283
0.267595 0.295005 -0.124524
-0.283256 0.0713072 0.0796843
-0.646472 -0.361765 -0.165539
-0.288499 0.408285 0.0543376
0.0238623 -0.30964 0.143883
0.113445 0.583941 0.372576
0.236956 0.446269 -0.0765661
0.0292339 -0.358019 0.294872
0.463427 0.137603 0.173907
0.0399291 -0.283544 -0.0588685
-0.0202808 -0.531419 0.00112065
0.166857 -0.254191 -0.443312
-0.594979 -0.471341 0.380645
-0.16086 0.581613 -0.300995
-0.00349813 -0.866627 -0.0190193
0.254292 0.241347 0.88608
-0.827499 0.496091 0.110644
0.0995981 -0.177612 0.770592
-0.447045 -0.488357 -0.135986
-0.00556851 -0.414264 0.133746
0.0894552 -0.319819 -0.284043
0.2842 -0.267083 -0.577656
-0.0558339 -0.326496 0.0238375
-0.0272901 -0.370549 -0.0667803
-0.0117977 -0.876555 -0.0140441
-0.280117 0.285507 0.0371171
-0.0765944 0.0808499 0.0153608
-0.0870227 0.521125 0.480333
0.123248 0.148745 -0.138129
-0.285333 0.0701171 0.0822405
0.0179619 -0.0659451 0.679189
-0.649971 -0.352027 -0.170268
-0.291488 0.0913675 0.0810187
-0.254696 0.00944693 0.0659008
-0.0207331 -0.742744 -0.00352395
-0.0551509 -0.7526 0.0308693
-0.00310461 -0.228459 0.0361315
-0.202402 -0.571448 -0.0862363
-0.225751 -0.383477 -0.013004
-0.0559187 0.208997 -0.00282149
0.43 0.451075 0.299861
0.180446 0.216364 -0.369563
-0.521283 -0.115906 -0.0316221
0.186832 -0.28768 0.289376
-0.0438859 -0.583611 0.0294872
-0.0242694 -0.882755 0.0404776
-0.0138501 -0.0647688 -0.337701
-0.583323 0.347389 -0.197159
-0.345867 -0.237293 -0.0183404
0.137386 0.286992 -0.627643
-0.507712 -0.433797 0.299331
-0.706648 0.0258979 -0.0534923
-0.0433256 -0.792395 0.0503091
0.0818931 -0.178458 0.77104
-0.0858363 0.293939 -0.0782581
-0.341331 -0.411328 0.1399
-0.0970957 0.501941 0.469621
0.052856 -0.237758 0.3828
-0.343064 -0.24929 -0.00299453
-0.641664 -0.497243 0.450619
0.158317 0.239518 -0.522517
0.328787 0.0848531 -0.340821
-0.687733 0.0564507 -0.0436856
-0.22598 -0.110569 0.047736
0.370059 -0.151891 0.750021
0.105757 0.559187 0.345371
-0.646768 -0.49932 0.452781
0.145352 -0.265693 0.387072
0.125016 -0.285117 -0.34184
0.737048 0.234178 0.238163
0.141332 -0.119363 -0.157324
0.0514907 -0.0756451 0.141979
0.118675 -0.207122 0.0698259
-0.168162 0.62148 -0.319445
-0.19807 -0.41732 0.00737005
-0.64856 0.00544949 -0.127628
0.503992 0.524192 0.307904
0.521741 0.13892 0.141874
0.235042 -0.25278 0.306637
0.0300483 -0.429373 0.189466
0.386117 -0.184958 0.365779
0.114016 -0.29384 -0.329704
0.198987 0.101656 0.707784
-0.0264481 -0.398651 -0.066396
0.140802 -0.113805 -0.631053
0.107645 -0.166371 -0.28912
0.502248 0.241783 0.306531
0.0327755 -0.485211 -0.101681
-0.0951541 0.332227 -0.626595
-0.000718067 0.0561016 0.568208
0.235332 -0.0862325 0.087228
0.0583787 -0.373261 -0.214734
-0.0432955 -0.842125 0.0268563
0.154242 0.249887 -0.480832
-0.0118141 -0.0276629 -0.367392
-0.166998 -0.449464 0.0229497
0.191099 -0.0132084 -0.1648
0.219712 0.473152 -0.0630299
-0.0162606 0.0353277 0.050744
0.566413 0.0411384 0.370147
0.212818 0.0861936 -0.159497
0.0163846 -0.874987 0.024151
0.0447408 -0.195059 0.683653
0.481459 0.352427 -0.0307075
0.374275 0.00755341 0.388523
0.316405 -0.193192 0.655445
-0.446717 0.392248 0.0215681
-0.0403384 0.00218012 -0.387419
-0.0151301 -0.356155 0.0391872
-0.602208 0.305992 -0.182125
0.143433 -0.0720928 -0.807979
0.0877056 -0.197971 0.779315
-0.5042 0.384701 0.0298283
-0.00806904 -0.666517 0.00372848
0.621477 0.186683 0.161285
-0.000245249 0.235163 0.285725
0.00243997 -0.126629 0.605496
0.101759 0.0118168 0.204239
0.400637 0.0161463 0.371181
-0.100759 0.0355192 0.0252486
-0.514216 0.169627 -0.0853245
-0.0178022 -0.54932 0.0422765
0.0981184 -0.297949 0.346368
0.375677 0.00237649 0.385613
0.327256 0.0879016 -0.332221
-0.032756 -0.39048 -0.0709288
-0.658909 -0.354325 -0.162518
0.40328 0.0580499 0.463667
0.176696 0.167167 0.307523
0.141919 0.274299 -0.569024
-0.0130297 -0.00770749 -0.388259
-0.0116751 -0.140033 -0.309589
-0.0328701 -0.349851 -0.117717
0.0289171 -0.306365 0.290099
-0.431173 0.665035 0.164907
0.312557 -0.0949589 0.399685
0.0305475 -0.508272 0.102306
0.154761 -0.0452248 0.582915
0.239202 0.0923131 -0.15937
0.0358035 -0.405112 0.22444
-0.3008 -0.297317 -0.0131395
0.166344 -0.137828 0.357115
0.00616595 -0.180209 0.526003
0.029296 -0.308957 -0.0386027
0.0636187 -0.230532 0.388216
-0.0200982 -0.443024 -0.0126884
0.207036 0.310963 0.652211
0.201585 0.613155 -0.0691693
0.0260293 -0.305987 0.124887
-0.104926 0.14963 0.766467
-0.453659 -0.481771 -0.14014
-0.401635 -0.199737 -0.00616864
0.113917 -0.171758 -0.44084
0.0515955 -0.11421 0.0863587
0.00907613 -0.196063 0.0465307
-0.0244489 0.00148647 -0.395869
-0.098656 -0.262066 0.0321685
0.0599552 -0.232839 0.400984
-0.0189817 -0.821675 0.00398573
0.130657 -0.173976 -0.542216
0.314709 -0.271899 -0.615264
0.027664 -0.203164 0.549939
0.0193812 -0.314979 0.106006
0.212921 0.336397 0.753163
-0.519344 0.160282 -0.0739515
-0.0475792 -0.541013 -0.00969165
-0.0226334 -0.203741 -0.261076
-0.0910059 -0.645941 -0.0108763
-0.307733 0.475427 0.0634939
-0.139019 0.173014 0.807005
0.189839 0.216275 0.402048
-0.364043 -0.516656 -0.111607
0.201939 0.266757 0.476093
-0.0405259 -0.719128 0.0253305
-0.110899 0.46 0.447192
-0.00778464 -0.374779 0.192638
-0.0121209 -0.133409 -0.318099
0.296496 -0.198014 0.321363
-0.0410165 0.0941299 -0.432408
0.0174747 -0.354579 0.00283901
0.257007 0.164002 0.00996587
0.0986781 -0.163943 -0.282965
0.0598299 -0.0208111 -0.025768
-0.420739 0.38588 0.0352157
0.0401952 0.0504744 0.148078
-0.0196494 -0.754496 0.00266351
-0.0564664 -0.0737141 -0.00902171
0.303331 -0.193824 0.349528
0.346765 0.0697061 -0.350411
-0.385533 -0.513328 -0.133089
-0.00389763 -0.348979 0.214611
-0.14416 -0.179187 0.0161904
-0.282709 -0.309637 0.00434627
0.321603 0.321131 -0.0998091
0.0926827 -0.32144 -0.289824
-0.0443099 -0.81308 -0.00586427
0.287915 -0.214049 0.602861
0.0136406 -0.121734 0.636117
0.0165718 0.138978 0.0972557
-0.012233 -0.0548139 -0.359088
-0.00745245 -0.596632 0.00492683
0.0737699 -0.337629 -0.247684
-0.0911584 -0.530205 0.00340896
-0.0621592 0.2818 -0.595307
0.0314405 -0.10519 0.67804
-0.715587 0.0536539 -0.0742485
0.128761 0.184764 -0.125233
0.234483 -0.251015 0.539925
0.00143899 -0.538848 0.0635573
-0.278235 -0.412768 0.130518
0.581728 0.0540349 0.382173
-0.724605 -0.313248 -0.154628
0.214763 0.194196 0.823469
-0.161507 -0.447125 0.022056
0.244728 -0.0802323 0.0819597
0.295581 -0.0780128 0.352456
0.169965 0.00441301 0.628827
-0.355237 0.285533 0.0960528
0.556781 0.433299 -0.08864
0.0836509 -0.171641 -0.397435
-0.256026 0.384597 0.0461936
0.0977779 -0.125686 -0.578309
-0.676011 -0.564947 0.527355
-0.0377901 -0.871133 0.0144273
0.0951603 -0.32476 0.314899
0.0874467 -0.216894 0.242123
-0.12425 0.0939883 0.0249875
-0.106739 0.313949 -0.104979
-0.597765 -0.0383792 -0.0644776
-0.00214789 -0.36352 0.0494557
0.739528 0.246206 0.221043
0.00246891 -0.139535 0.577915
-0.0597835 0.263726 -0.54028
0.196519 0.417021 -0.266379
0.459221 0.0335493 -0.42596
0.427971 0.476357 0.306717
0.0218767 0.177717 0.124778
0.196852 0.0153637 -0.171116
0.172151 -0.15833 0.315088
0.0620984 -0.220056 0.395683
0.123708 -0.0939904 -0.694683
0.149871 -0.138305 0.0565701
0.0464907 -0.132396 0.108794
0.350579 0.402219 0.295904
-0.638277 -0.504501 0.43964
-0.697963 -0.0329155 0.00466541
-0.0167246 -0.595507 0.00860496
0.0930832 -0.0514352 -0.660016
0.279528 -0.245436 0.573784
-0.24323 0.313931 0.012242
-0.158626 0.563789 -0.270216
0.322205 -0.197442 0.636651
-0.129755 0.451427 -0.14853
-0.373669 0.335419 0.0420256
-0.0380288 -0.371861 -0.100672
-0.00409568 -0.226457 0.428291
-0.0401267 -0.0857475 -0.00390171
-0.0165794 -0.396011 0.157008
-0.242393 -0.546957 -0.0738819
0.0914245 -0.222097 0.0651456
-0.176702 -0.446448 0.05614
-0.258476 0.0129102 0.0852843
-0.468573 0.106253 -0.0491725
0.261144 0.267787 0.299773
0.244917 0.110379 -0.156941
0.612235 0.164089 0.161704
0.224625 0.140933 0.0133851
0.0663664 -0.373941 -0.200027
-0.457024 -0.477456 -0.155071
0.118382 -0.147754 0.863664
-0.302669 -0.297949 -0.0101569
0.0941061 -0.18243 -0.204095
-0.00680427 -0.131388 -0.321307
-0.216571 -0.561747 -0.0767331
0.0987432 0.557301 0.35328
0.00466848 -0.481275 -0.084208
-0.305973 0.594603 -0.214316
0.153973 0.239224 -0.477443
0.382992 0.0449032 0.465171
0.156932 -0.106489 -0.161103
0.189904 0.443851 -0.30532
0.538723 0.0115743 -0.441027
-0.726037 0.548843 0.222099
0.25572 -0.079996 0.375085
-0.220225 -0.466384 0.0982555
-0.247657 -0.364677 -0.00253061
0.0207972 -0.516253 0.0769787
-0.164366 0.166721 0.877173
-0.197455 -0.429448 0.0116811
-0.122192 0.340379 -0.658813
-0.140239 0.490203 -0.196918
0.183679 0.276016 0.510373
-0.641232 0.0324549 -0.138553
-0.420616 0.720237 0.207586
-0.474136 0.118004 -0.0269432
0.142561 -0.075408 -0.818776
-0.316093 -0.274125 0.00551563
-0.0263891 -0.642859 0.0019261
0.105248 -0.169761 0.312701
-0.668152 0.0103852 -0.0651077
-0.0290776 -0.212979 -0.270229
0.173408 0.20424 -0.343899
0.12436 -0.114396 -0.597109
0.147162 0.351187 -0.234383
-0.191699 -0.425389 0.00922043
0.249487 0.178405 0.00433589
-0.0120069 0.281976 0.322245
-0.720224 -0.0367341 0.00715968
-0.0350957 -0.563829 0.00491453
-0.715872 -0.302827 -0.16136
-0.189865 0.190998 0.0127303
-0.579656 -0.405669 -0.164891
-0.057648 -0.692717 0.0124829
-0.266301 -0.0796208 0.0527573
-0.654083 0.428787 0.0186549
-0.244383 -0.445075 0.0740296
0.596448 0.458675 -0.101898
-0.0594259 -0.0415579 0.0358056
-0.0981989 -0.624861 -0.00846403
0.140924 -0.114883 -0.678155
0.513243 0.144546 0.148225
0.382109 0.412859 0.276291
0.0174083 -0.162623 0.0374981
0.0262728 0.0297792 0.491472
-0.0548085 -0.591579 0.0204883
0.260117 -0.0665341 0.0873613
0.170541 0.213251 -0.424872
0.390419 0.06498 0.480299
0.671931 0.491163 -0.154899
0.0265744 -0.831392 0.0170725
-0.00663392 0.0537008 0.563072
0.291528 0.432429 0.604739
-0.000237268 -0.536168 -0.0293467
-0.0193909 -0.875976 0.00333365
0.08744 -0.103245 0.360728
-0.288163 0.0610856 0.0923136
0.332045 -0.242249 -0.631685
-0.37172 0.374203 0.113624
0.192001 0.170344 0.276837
0.26784 0.379216 0.569627
-0.0788096 -0.534181 0.0211103
-0.0456096 -0.671547 -0.024845
-0.247535 -0.420955 0.095648
-0.67916 -0.555616 0.495059
-0.276024 -0.0749696 0.0437549
-0.0192581 -0.784045 0.0360779
0.107087 -0.181254 0.792088
0.229997 0.0740531 -0.167969
-0.0197174 -0.126716 -0.309613
0.424523 -0.151737 0.372848
0.000486928 -0.502717 0.106189
-0.548208 -0.426805 -0.15921
0.144155 -0.128106 -0.150936
-0.281429 0.0979416 0.0946744
0.0291875 -0.292939 0.31628
0.0772475 -0.33992 -0.257973
0.174319 -0.268928 0.424456
0.123461 -0.11438 -0.649749
0.487331 0.167611 0.219738
0.0937563 0.463464 0.269309
0.023562 -0.361459 0.287429
0.274224 -0.0474245 0.0980648
-0.163604 -0.584208 -0.0698024
0.0593901 -0.257656 0.0830059
0.112333 0.247102 -0.162803
0.00462816 -0.359581 0.213611
-0.0217198 -0.709163 -0.0107859
-0.589429 -0.508736 0.420861
0.540397 -0.12513 0.432741
-0.176325 0.591299 -0.266069
0.0928851 -0.356747 0.243513
0.0325109 -0.204199 0.636339
-0.120715 0.576616 0.521979
0.0955683 -0.329621 -0.288704
-0.0468067 -0.551984 -0.0113499
-0.00624528 -0.162114 -0.290477
-0.0651701 -0.667611 -0.00340461
-0.412552 -0.178929 -0.0318973
0.0194764 -0.125544 0.600507
-0.1104 0.0693323 0.0495621
0.0217165 -0.481387 0.117962
0.391221 0.264519 -0.0153981
0.139682 -0.128213 -0.69052
-0.470032 -0.137973 -0.0382699
0.0850699 -0.0227616 0.172113
0.104269 -0.0153442 0.196483
-0.0614453 0.445032 0.440304
-0.375456 -0.219132 -0.00110342
0.197803 0.58328 -0.0787403
-0.0122096 -0.441995 0.0906136
-0.555947 0.211499 -0.110694
0.0832472 -0.267925 0.42172
0.378963 0.0664291 0.156857
0.0604571 -0.282632 0.494272
0.43996 -0.153283 0.397264
0.0168134 0.124128 0.0951715
-0.140464 -0.219446 0.0292725
0.621323 0.0869429 0.382736
0.0106403 -0.230711 0.0525765
-0.0374768 -0.316141 -0.169071
0.501021 0.203589 0.262622
0.122168 0.0367976 0.208803
-0.0367621 -0.571704 -0.0165786
0.00379949 -0.551117 0.0532021
-0.0313224 -0.833296 -0.0129116
0.23562 -0.246062 0.291165
-0.10857 0.143289 0.782915
-0.0437699 -0.344789 -0.117347
-0.0368989 0.188357 -0.482872
-0.0434613 0.204338 -0.500635
-0.0209036 -0.44128 0.0756168
-0.0108697 -0.832357 -0.0191508
0.478723 0.210152 0.279253
0.186173 0.11297 0.26045
0.303248 -0.252001 -0.563904
-0.15053 0.0734624 -0.0020901
-0.333163 0.239243 0.0950304
-0.356563 0.444744 0.136496
-0.00547512 -0.275707 0.416275
0.298859 -0.220734 0.636003
-0.0867608 0.133365 0.748469
0.0727144 -0.0571011 0.168633
-0.0759219 0.0817296 0.0200276
-0.377976 -0.207992 -0.0101637
-0.615677 -0.0476037 -0.012349
-0.420957 0.0497248 -0.00124617
-0.0351571 -0.314107 -0.154942
0.00454568 -0.77688 -0.00730008
-0.0189671 -0.18153 -0.294899
-0.355635 -0.251508 -0.00809213
-0.344301 0.588981 0.0861915
-0.236494 -0.416944 0.0849805
0.0534896 -0.401909 -0.176961
-0.0294437 0.0258866 -0.392059
0.410131 0.0705376 0.144692
-0.0394709 -0.505261 0.00587736
-0.0892453 0.136727 0.748155
-0.73148 0.058972 -0.0507853
0.459725 0.549528 -0.102896
0.189603 0.630104 0.443515
-0.0831979 0.131956 0.739395
0.228628 0.207307 0.288845
0.455579 -0.153926 0.396573
0.142974 -0.117072 -0.717509
0.0155573 -0.22889 0.0493475
-0.269555 0.0199912 0.0635389
0.0139701 -0.336371 0.250224
-0.486789 -0.455499 -0.154362
-0.176703 0.192929 0.00481819
-0.603453 -0.393016 -0.157785
-0.194678 -0.563051 -0.0539347
-0.221129 0.218474 0.0238601
-0.532243 0.187632 -0.10978
-0.132218 0.0397701 0.017959
0.00439136 0.306573 0.148349
0.0962755 -0.206211 0.0685336
0.268125 0.299547 -0.0950509
0.149348 -0.114769 -0.154077
0.357019 0.0421403 0.13178
0.252624 -0.0684611 0.0984851
0.183347 -0.0183124 -0.18906
-0.364621 0.439021 0.134632
0.169911 -0.272093 0.41968
-0.0750003 0.313211 -0.618765
0.272112 -0.211453 0.316123
-0.298144 -0.554579 -0.105535
0.0633701 -0.338704 0.262434
0.103753 0.0167245 0.198423
0.0568472 -0.0353909 0.448779
0.442005 0.0576901 -0.417616
0.341315 0.350371 -0.120108
-0.0449571 -0.710709 -0.0109427
-0.0208215 -0.765461 -0.0139258
0.0160837 -0.854701 -0.00344243
0.25781 0.314693 -0.0797187
0.184207 -0.0905797 -0.161063
0.198005 -0.116086 0.0747179
0.0836173 -0.193217 -0.167079
0.00494797 -0.0996808 0.0600715
-0.259697 -0.409195 0.0852045
-0.417987 0.0611605 -0.00500851
0.332584 0.235666 -0.00493731
-0.0265458 -0.261866 -0.224705
0.539581 0.0505941 0.375301
-0.000110926 0.0751528 0.0464875
-0.0339408 -0.390197 -0.0643435
0.588936 -0.00797013 -0.640045
-0.00547867 -0.849984 0.0340112
-0.286517 -0.311168 -0.00197515
0.01116 -0.521136 0.0871123
-0.0103751 0.0763736 0.600973
0.0898405 -0.157393 0.450245
0.0153652 -0.47784 0.119342
-0.00776781 -0.7328 0.0234846
0.346741 -0.244193 -0.636931
0.10617 0.149473 -0.0969779
-0.0336707 -0.844779 -0.018837
0.114861 -0.150028 0.839448
0.439885 0.0255699 0.366037
0.0841773 -0.288829 0.351141
-0.00241205 -0.204095 0.512069
0.113514 -0.181726 0.0508675
0.0162445 -0.494584 -0.0839363
-0.0238632 -0.125473 -0.319144
0.582472 0.148267 0.174446
-0.412245 -0.497861 -0.122737
0.445075 0.0848427 0.160734
-0.476717 -0.470992 -0.159188
-0.0291632 -0.643904 -0.000412672
-0.405216 -0.499128 -0.127592
0.133306 -0.223707 -0.441493
0.269979 0.176387 0.015447
-0.00127019 0.262885 0.125154
0.558501 -0.129654 0.43084
-0.653229 -0.527504 0.473475
-0.0251324 -0.619285 0.0225131
0.192891 0.23792 0.409315
-0.337051 -0.521797 -0.113711
-0.230663 -0.0754141 0.0592331
-0.151429 0.0616149 -0.0047812
-0.773496 0.106195 -0.0402488
0.0255613 -0.0186663 0.716851
-0.63316 -0.00227116 -0.0647392
0.0174597 -0.144651 0.560483
-0.230516 -0.394611 -0.00722715
0.0663339 -0.243263 0.0524797
-0.0666645 -0.06294 0.0195216
-0.266728 0.0313619 0.0691192
0.02766 -0.344347 0.0855259
0.3044 -0.0589485 0.388397
-0.503141 -0.42008 0.267659
0.0338573 0.0632515 0.135914
0.0953731 -0.100011 0.364453
-0.763864 -0.274131 -0.157323
0.215244 -0.271995 0.299277
0.524288 0.41936 -0.0772464
-0.0158579 -0.387139 0.0291672
0.0589717 -0.249247 0.201939
0.152343 -0.0555459 0.53464
0.47016 0.139042 0.183645
-0.0347195 -0.342573 -0.126791
-0.689669 -0.328611 -0.178117
0.274824 -0.218471 0.347029
-0.0171339 -0.136217 0.0328304
-0.409099 0.685133 -0.252427
-0.114134 -0.502267 0.0279747
-0.0420925 -0.773104 0.0182835
0.00217277 -0.0112759 0.739787
-0.376981 0.324035 0.037788
-0.00980232 -0.71016 -0.00394411
-0.0112966 -0.311256 0.378595
0.684304 0.225844 0.194382
-0.0272341 -0.799168 -0.003724
-0.0317403 -0.127166 -0.00858688
-0.0379 -0.629192 0.0100283
-0.0433835 -0.144011 0.0237061
0.597083 0.0945701 0.384069
0.135061 0.0338384 -0.00257154
-0.0171208 -0.4558 0.0440768
0.104279 -0.135827 0.331117
0.209863 0.285664 0.484565
0.361355 -0.0769131 0.403237
-0.361979 -0.00669771 0.0214911
0.00445171 -0.110542 0.0311373
-0.0573845 0.0299763 0.0219477
0.107371 0.00273504 0.196797
0.0276448 0.044176 0.511165
0.253454 -0.244047 0.541811
-0.184723 -0.136124 0.0443347
-0.0886344 -0.265271 0.0268269
-0.113822 -0.493411 0.0318867
-0.0450445 -0.726291 0.021814
-0.367451 0.31196 0.0341056
-0.53452 -0.432981 0.308797
0.0467627 -0.389248 0.216859
0.164103 -0.10037 -0.172337
0.106255 -0.168025 -0.443915
-0.493632 0.146906 -0.0619163
0.199807 -0.118797 0.0817493
-0.0115702 0.0859077 0.588992
-0.282688 -0.31984 -0.00774989
-0.553619 0.451843 0.0569528
-0.12521 0.467584 0.450323
-0.133037 0.342656 -0.0988115
-0.000556139 -0.742768 -0.0179243
-0.310075 0.170187 0.0974053
-0.118865 -0.612971 -0.0326397
0.226352 -0.267141 0.478392
-0.273512 -0.539107 -0.107848
-0.453435 0.143063 -0.0392683
0.0347112 -0.368141 0.277029
0.751899 0.236343 0.236032
-0.363819 0.552421 0.185665
0.183535 0.321931 0.634184
-0.0264515 -0.862261 0.00101231
0.412483 -0.169373 0.377195
-0.675869 -0.536605 0.479811
0.0949595 -0.309445 -0.276133
-0.692411 0.0702691 -0.211737
-0.0206117 -0.0684181 0.0484744
0.768507 0.257122 0.226351
0.106603 -0.135845 0.317304
0.0130943 -0.320901 0.273157
0.183876 0.257384 0.505197
0.300045 0.301328 0.293283
0.0352109 0.299824 0.165273
0.0364453 0.166657 0.217046
0.0981277 -0.193571 -0.215971
0.112367 0.0411064 -0.0446293
-0.0199714 -0.79916 -0.00520283
0.0986213 -0.16581 -0.296371
0.532352 0.512904 0.314232
0.0366077 0.0857573 0.175849
0.520403 0.00959072 -0.441392
-0.150588 -0.601992 -0.0280661
0.214259 0.350792 0.776997
-0.525304 -0.43696 0.281147
0.020326 -0.17262 0.0444469
0.239018 0.131989 -0.157451
0.220453 0.280779 0.497664
0.277517 -0.0558651 0.345253
-0.290741 0.414275 0.0378803
0.215584 0.324557 -0.0664925
0.080492 0.011777 -0.735411
0.191869 -0.119715 0.0761011
0.19406 -0.275733 -0.5048
-0.0244554 -0.445819 0.0843901
0.518587 0.333736 0.360901
-0.277968 -0.3228 -0.0019609
0.0305987 -0.459981 0.141763
0.167848 -0.0200976 0.605957
0.00428947 -0.753656 0.0313797
0.0195362 -0.367509 -0.00503133
-0.0499277 -0.756491 -0.0128119
-0.418421 0.691344 0.162422
-0.0809792 0.0590973 0.0313917
-0.818864 0.115539 -0.0305421
0.317848 -0.0656485 0.417437
0.0202977 -0.493275 0.106425
-0.651208 -0.52192 0.463832
-0.0191066 -0.422512 0.0352296
-0.781248 0.0920024 -0.0399453
0.0641109 -0.210321 0.417824
-0.474325 -0.147249 -0.0169325
-0.0152422 0.0842363 0.614731
-0.580168 0.351944 -0.206459
0.234448 0.128203 -0.164679
-0.26569 -0.0772168 0.0362763
-0.134787 0.562376 0.524283
-0.00492083 -0.263496 0.420955
-0.0320373 -0.360384 -0.10099
-0.0196238 -0.855304 -0.000720152
0.0693483 -0.364667 -0.215896
0.212252 0.286563 0.506163
0.0876904 -0.197923 -0.151447
-0.768048 -0.0396565 0.0232088
0.160989 0.101281 0.00888213
-0.0310843 0.392749 -0.660563
0.409699 0.319968 -0.0236753
0.0879264 -0.170777 -0.3084
-0.248942 0.00370064 0.0729363
0.122515 -0.0993352 -0.685976
0.815693 0.289381 0.269307
0.225511 -0.255129 0.488133
0.135463 -0.0886115 0.535213
0.0112156 0.315664 0.145293
-0.300211 -0.405707 0.133483
-0.2906 0.0856957 0.0760723
0.593781 0.160552 0.185809
0.00474888 -0.488277 0.136164
0.259139 -0.221529 0.302419
0.170085 0.604824 0.393571
0.000970883 -0.315168 0.370272
-0.360429 0.00116624 0.0286019
-0.0245964 -0.861523 0.03384
-0.0232963 -0.569944 0.0462853
-0.0226213 -0.0609253 0.0089816
0.0963696 -0.309725 -0.294995
-0.0360451 0.171792 -0.480685
-0.0379872 0.208023 -0.516091
0.659021 0.205825 0.163316
0.070156 -0.18781 0.715643
-0.417443 0.383344 0.0380163
0.321829 -0.260029 -0.619933
-0.377792 0.333179 0.0938763
0.00868555 -0.316152 0.107144
0.480037 0.365197 -0.0709536
-0.016062 -0.444811 0.0696155
0.221618 0.0689005 -0.176646
-0.0312685 0.0551176 -0.412291
-0.17968 0.189965 0.0102796
0.0321232 0.00455984 0.739123
-0.308595 -0.519731 -0.114322
0.486264 0.211386 0.247729
-0.763283 0.494944 0.105018
-0.0114839 -0.609224 0.00942547
0.039648 -0.390019 -0.175058
-0.11657 -0.485712 0.0366635
-0.0454336 0.230482 -0.507771
-0.00316613 -0.387859 0.0187357
-0.0167487 -0.0975923 -0.318784
-0.0371883 -0.278525 -0.226091
0.0281125 -0.149734 0.625341
-0.126926 0.128092 0.0291771
-0.068532 0.136446 0.737739
0.33936 -0.18036 0.688085
0.255981 0.156334 -0.148114
0.108323 -0.175161 -0.261023
0.359677 0.0184325 0.120134
-0.0806613 0.0213484 0.0210606
0.139932 0.281784 -0.171419
-0.261805 -0.0706525 0.043464
-0.0394443 -0.825629 0.045248
-0.668464 0.0430168 -0.162869
-0.0768603 0.0682064 0.0076004
0.30928 -0.191821 0.335443
-0.0273635 -0.673091 -0.0142748
0.0305915 -0.488309 -0.095636
0.00666549 0.202821 0.241017
0.109658 -0.103279 -0.581237
-0.425579 -0.178543 -0.0159463
-0.266549 -0.413189 0.126615
-0.78412 -0.24611 -0.131829
-0.313064 -0.301621 -0.00745851
0.184024 0.433909 -0.275597
-0.0689144 -0.646781 -0.0148388
-0.226308 -0.0253742 0.0620699
0.503851 0.302683 0.323605
0.348293 0.493491 0.660659
0.463075 0.157202 0.190032
-0.542147 -0.431187 -0.15006
0.167488 0.172509 0.285819
-0.0537451 0.164956 -0.472701
0.284472 0.339915 -0.0984936
0.429187 -0.177939 0.369808
0.081192 -0.204702 -0.112415
0.649397 0.466053 -0.143706
0.137609 0.293299 -0.197766
-0.713211 -0.323112 -0.153203
0.194294 0.0771243 0.680291
0.0286157 -0.461696 -0.131255
-0.000161901 -0.78748 -0.0189784
-0.517232 0.152181 -0.0818664
0.479325 0.215013 0.255094
-0.615709 0.480077 0.152806
0.351824 -0.163393 0.710816
0.0824587 -0.0127294 -0.0290485
-0.444837 0.0958339 -0.0168854
0.154768 0.255795 -0.533056
-0.477819 0.394363 0.0473573
0.272864 -0.257999 -0.530123
0.180484 -0.0380616 -0.180354
0.364739 -0.00994421 0.471189
0.220215 0.110041 -0.255158
-0.0565229 0.30104 -0.612237
0.0153481 0.130873 0.19345
0.438096 0.00277707 0.384245
0.247816 -0.0859669 0.0779501
-0.12702 -0.607899 -0.0361619
0.0334536 -0.457987 -0.0995248
-0.415035 0.0608861 0.0152893
0.716157 0.21834 0.194157
0.309477 -0.0852077 0.418168
0.125767 -0.189455 0.262255
-0.357584 0.2786 0.0861637
0.119192 -0.0899928 0.541312
0.0118001 -0.653155 0.00594525
-0.0288467 -0.683093 0.0499259
-0.0409587 -0.267723 -0.216655
-0.0690227 0.00524395 0.0393165
0.38708 -0.00799229 0.360856
-0.264224 0.279931 0.0326011
-0.00647648 0.050264 0.554221
-0.00166689 -0.567421 0.0397213
-0.0423728 -0.861672 0.010353
0.497933 0.250322 0.293821
-0.364072 0.477563 0.126089
0.329168 0.218799 -0.00458731
-0.130554 0.348243 -0.116371
-0.465435 0.369915 0.0695603
-0.550413 -0.0988347 -0.0380744
0.590187 0.0604912 0.374115
0.151445 -0.210213 -0.458573
0.190113 0.156526 0.281205
-0.85 -0.180862 -0.143214
0.0718224 -0.211899 0.241334
0.234435 0.219642 0.292413
-0.00259762 -0.877192 0.00089628
-0.105221 0.0651653 0.020698
0.184093 0.153141 0.289277
0.221937 0.478003 -0.347264
-0.022065 -0.308445 -0.169222
0.0286781 0.175949 0.225105
-0.61904 -0.390448 -0.170707
0.210297 0.341965 0.783643
0.501411 0.356784 0.359291
-0.724339 0.0298581 -0.0435363
0.516952 0.00341688 -0.430859
0.275347 -0.206485 0.32964
-0.0139509 -0.556037 -0.011833
0.108541 -0.194843 0.0606773
-0.615197 -0.473309 0.392541
-0.336912 -0.0189348 0.0312853
-0.610184 -0.490248 0.412075
-0.114515 0.141939 0.790325
-0.590555 -0.0633213 -0.0428061
-0.606912 -0.388011 -0.169171
0.0433619 -0.219265 0.61432
0.0880211 -0.173157 -0.401152
-0.475923 -0.465424 -0.144358
0.331944 0.349581 0.296683
-0.294477 0.117895 0.101223
0.195627 -0.123643 0.0596147
-0.659963 -0.541384 0.479976
-0.182981 0.180262 -0.00527453
-0.0886992 0.227589 -0.0124906
-0.112269 -0.226501 0.0364299
0.235419 0.156554 0.00640691
-0.139967 0.569928 -0.289712
0.130366 -0.100121 0.520056
-0.0908485 0.518229 0.416573
-0.0286648 -0.333453 0.0419288
-0.0250687 -0.487981 0.0229623
0.550248 0.533597 0.308301
0.128451 0.0500904 -0.0158125
-0.313091 0.1906 0.0917184
0.0836947 0.0580384 -0.750176
-0.302312 0.146946 0.0951272
-0.495504 -0.419003 0.260392
-0.614997 -0.0307832 -0.0484843
0.501107 0.231377 0.275381
0.584347 0.455099 -0.117632
-0.37332 -0.507627 -0.118223
-0.470808 -0.421843 0.271605
-0.299891 -0.290696 -0.00283515
-0.000168069 0.0920272 0.617512
-0.0769104 0.528344 0.442469
-0.417195 -0.405139 0.186385
0.163794 -0.0476317 0.576544
0.0198085 -0.349859 0.268213
-0.390403 -0.411427 0.187948
0.241601 0.19895 -0.128536
0.129106 -0.191859 -0.520336
0.129369 -0.13924 -0.1438
0.490365 0.311416 0.340104
-0.0499875 -0.818219 0.0178488
-0.471077 -0.475333 -0.149124
-0.16328 -0.59392 -0.0697227
-0.266508 -0.344597 -0.0100005
0.0682 -0.214897 0.663744
-0.0145476 0.0109339 0.0103523
0.00485997 -0.333683 0.264989
0.307989 0.336507 0.307477
-0.347872 -0.522701 -0.104777
0.102251 -0.166449 0.29704
-0.329563 -0.0409333 0.0304461
0.284147 -0.187549 0.321664
0.134007 -0.117513 -0.593632
0.115905 0.15241 -0.138591
0.00826104 -0.630781 0.0283395
-0.0336992 -0.750779 0.0598355
0.0881197 -0.167234 -0.379157
0.334163 -0.0857709 0.423267
0.282091 0.284224 0.317595
0.203674 0.0879005 0.701981
0.0704165 -0.0774989 0.140749
0.28804 -0.0729987 0.326912
-0.399867 -0.407688 0.187186
-0.636176 -0.368995 -0.164216
-0.337088 -0.404531 0.148089
0.347493 -0.24766 -0.664973
0.213693 0.329621 0.769589
0.153088 -0.164659 0.2964
0.213514 0.483888 -0.360227
-0.0331861 -0.679765 0.00371739
0.0202479 -0.109596 0.608667
0.11946 -0.139382 -0.538072
-0.136579 0.153294 0.0266925
0.011357 -0.299667 0.370819
0.371765 0.395853 0.291744
0.167285 0.578939 0.376099
0.123444 0.0175709 0.217013
0.165093 0.227988 -0.451307
-0.731149 -0.298837 -0.138581
-0.854712 -0.199594 -0.146432
0.312083 -0.204586 0.335179
-0.570619 0.241152 -0.12878
-0.196128 -0.433139 0.00148889
-0.197053 -0.567344 -0.0595245
0.101042 -0.16453 -0.391016
0.0773448 -0.177059 -0.283363
0.252062 0.339533 -0.0738184
-0.0243421 -0.830357 -0.0239774
0.125621 -0.250191 -0.420936
0.194438 0.448848 -0.299133
0.024207 -0.447837 0.15839
-0.456061 0.793075 0.195919
0.542877 0.433291 0.461968
-0.164787 0.578989 -0.272691
0.0532728 -0.239583 0.388499
0.648101 0.190205 0.173237
-0.608643 -0.386595 -0.162711
0.195426 0.0462344 -0.175599
-0.325619 0.527227 0.0595701
0.0377549 -0.0509003 0.713019
-0.691467 -0.324043 -0.154639
0.185895 0.0238648 0.61988
-0.586904 -0.394299 -0.179368
0.153063 0.222855 -0.467629
-0.100533 -0.613981 -0.03016
-0.404405 0.690496 -0.2527
-0.766 0.0616781 -0.0439688
-0.0695605 0.412104 0.429363
0.144079 0.0613787 6.73485e-05
0.0538976 -0.0460408 0.431035
-0.0713419 0.123212 0.705976
0.294016 0.0847643 -0.322045
-0.0584832 0.257615 -0.550437
0.19651 0.10943 0.00352155
0.127162 -0.211737 -0.522691
0.0344024 -0.287493 -0.0648627
-0.329424 0.321827 0.0327437
-0.765301 -0.278792 -0.132034
-0.232973 -0.0595424 0.0660285
0.30668 -0.0212682 0.115138
0.372016 0.0313077 0.142838
-0.106718 0.34052 -0.636109
-0.0101338 -0.417051 0.122358
0.192953 0.0206674 -0.179586
-0.0145567 -0.605565 0.0476677
-0.243181 0.372757 0.0229713
-0.516341 0.422064 0.0939752
-0.120407 -0.224373 0.0293384
-0.00356619 -0.106234 -0.332597
-0.425229 0.711656 0.185695
0.120882 -0.322088 0.266672
0.144459 0.0705448 0.245893
0.487336 0.242281 0.277797
0.0594739 -0.276288 -0.0519053
-0.265523 -0.548699 -0.0864411
0.145799 0.138605 0.263687
0.166583 -0.100954 -0.173617
0.0925221 -0.060388 -0.619056
0.481827 0.122502 0.176911
0.0631248 -0.182102 0.438056
0.461955 0.361981 -0.054524
0.197826 0.415125 -0.272789
-0.293645 0.108181 0.0924677
-0.0232022 0.0521525 0.0273147
0.149944 -0.161126 0.0654821
-0.318141 -0.51804 -0.117811
0.339989 0.0855957 -0.364851
-0.291533 0.183784 0.115669
-0.0471659 -0.847424 0.0550587
0.104305 -0.175887 -0.13231
0.115029 0.574408 0.379645
0.175521 -0.00946883 0.607272
-0.623912 -0.067956 -0.0201498
0.0817448 -0.346443 0.254417
0.387227 0.427184 0.300568
-0.790171 -0.251629 -0.129927
0.00958544 0.247278 0.11958
-0.500645 -0.460128 -0.139793
-0.0219409 -0.852877 -0.00817259
-0.405547 -0.406269 0.185092
-0.212082 -0.109116 0.0563469
0.451445 0.477253 0.297843
0.269771 -0.0751632 0.0822067
0.186415 0.193223 0.389219
0.148573 -0.259659 -0.402053
-0.0144892 -0.431107 0.102575
0.171003 -0.0704387 -0.163783
-0.283509 0.572885 -0.206924
0.229379 -0.0972629 0.081588
0.485011 0.0518901 -0.511712
0.00154105 -0.809923 0.0383931
0.0804453 -0.0705237 0.134995
0.101412 -0.109033 -0.572648
0.20531 -0.122392 0.0659459
-0.131744 0.1096 0.00223094
0.345587 -0.00676317 0.113402
-0.303899 -0.28796 5.19467e-05
-0.457173 -0.157855 -0.0339552
-0.322992 0.315133 0.0481747
-0.0766659 0.531853 0.4744
0.35072 0.33912 -0.131479
-0.102918 0.44264 0.412709
-0.00267101 -0.676997 0.000797125
-0.813411 -0.0518309 0.0413733
0.327045 0.315216 -0.134209
0.215881 0.0388165 -0.182179
-0.0515197 -0.781853 0.0235156
-0.017367 -0.428904 0.0792829
-0.420539 0.0641896 0.00593923
-0.346523 0.253089 0.125186
-0.0507189 0.0959909 -0.423701
-0.0668512 0.118834 0.698224
-0.408341 -0.182432 -0.00888685
0.109046 0.116258 -0.102905
-0.10537 0.556581 0.539101
0.037576 0.120619 0.18804
0.00304509 -0.766131 -0.00589747
-0.0148868 -0.36824 0.0478245
-0.00818344 -0.733792 0.00931336
-0.173408 0.622992 -0.319019
-0.0603744 -0.343392 0.0215501
-0.706112 0.0429315 -0.0575053
0.0851579 -0.1733 -0.341285
-0.364861 0.504296 0.15927
-0.398621 0.623963 0.118231
-0.430101 0.349341 0.0537445
-0.273093 0.394075 0.0290128
0.0197928 -0.342555 0.315464
0.0190014 -0.486984 -0.0789256
-0.337429 -0.519195 -0.112883
-0.135802 0.443691 -0.161838
0.196692 -0.269288 0.448043
0.617509 0.596472 0.339421
0.242676 0.215214 -0.130554
0.0473211 -0.263403 -0.0693125
0.520827 0.508371 0.299776
-0.0224007 -0.885008 -0.00368752
0.234023 0.126241 -0.169497
0.211183 0.0592947 -0.175279
-0.250098 0.0140264 0.0711365
0.0213697 -0.0140964 0.753003
0.0867397 -0.0730027 -0.618779
-0.0266479 0.00491184 -0.388043
-0.0125389 -0.701464 0.0198825
-0.602909 0.291992 -0.193378
-0.0490904 -0.643075 -0.0163535
0.258137 -0.239766 0.544789
0.223336 -0.0969573 0.0786659
0.341629 0.0117796 0.162271
0.0802765 -0.175592 0.714659
0.561619 -0.116927 0.438795
0.0714909 -0.0508043 0.409459
-0.429139 -0.184505 -0.0293371
0.2088 0.433336 -0.290656
0.0302533 -0.358771 0.246831
0.314011 -0.267968 -0.598472
0.373528 0.094944 -0.384752
-0.115993 -0.607901 -0.0352027
0.147551 -0.314912 0.278427
0.427851 0.0765661 -0.462416
0.101945 -0.321957 0.322029
-0.0761179 -0.277539 0.0303512
0.152557 -0.267725 -0.409632
0.781733 0.16108 0.374205
-0.564253 -0.0804843 -0.0380251
-0.248171 -0.366565 0.00692368
-0.00573467 -0.448427 0.0635091
0.155359 -0.0433392 0.581861
-0.0266709 -0.426509 0.0995557
-0.0482096 -0.354224 -0.114983
0.0110774 -0.0569813 0.0426429
-0.00293893 -0.520043 -0.0437115
0.248645 -0.0700067 0.0895803
0.407416 0.0508363 0.168831
-0.0334315 -0.74856 0.0159462
-0.384885 -0.207164 -0.0138811
-0.70664 -0.0440867 -0.00849296
0.294259 -0.0419339 0.113388
0.501309 0.382064 -0.0545811
0.312488 -0.144587 0.374891
0.343592 -0.186528 0.708288
-0.235394 0.229408 -0.00656989
-0.0104941 -0.0772949 0.0399539
0.208865 -0.10368 0.0702968
-0.378917 0.0272899 0.0117279
0.514731 0.392285 -0.0476776
0.200451 0.150465 -0.27008
0.00309893 -0.31784 0.347184
-0.0371592 -0.0146214 0.013414
0.112411 -0.0135127 0.194665
0.0663627 -0.175302 -0.321976
0.449624 0.072356 0.145674
-0.00488859 -0.698373 -0.0113298
0.0292157 -0.463925 0.120619
-0.479283 0.395192 0.0550688
0.352667 0.0158718 0.115627
0.19061 0.00877171 -0.174879
0.0376165 -0.123639 0.120176
0.045392 -0.378792 -0.197356
-0.0316643 0.103269 -0.44228
0.158449 -0.279741 0.408837
-0.0408253 -0.400965 0.149878
0.0140438 -0.342816 0.10929
0.219033 -0.0617779 0.383288
0.0338133 -0.344043 -0.0172922
0.352867 -0.0737467 0.416152
0.237906 0.478085 -0.0507125
-0.265372 -0.087352 0.0434707
0.322928 -0.262977 -0.623819
0.0953696 -0.209741 -0.172961
-0.0384056 0.17654 -0.481101
0.304888 0.260755 -0.121818
-0.0471536 -0.345581 0.0252773
0.0757667 -0.206552 -0.281019
0.552901 0.140636 0.142162
0.177365 0.186595 0.266509
0.104677 -0.12344 0.486168
0.207072 -0.105213 0.0840283
0.155381 0.578485 0.400024
-0.218036 -0.388336 -0.00380243
0.207245 0.336187 0.72516
-0.53108 -0.429683 0.307611
0.108925 -0.143961 -0.561251
0.230638 0.0837661 -0.154205
0.170384 0.0148281 0.624885
0.0493325 -0.105468 0.101494
-0.726763 0.0347504 -0.0507336
0.113674 -0.20447 0.0477539
-0.626576 0.473781 0.045036
-0.0406789 0.102807 -0.426139
-0.288053 -0.0602061 0.0296859
-0.305731 0.45896 0.0400456
0.0759613 -0.24103 0.0657195
0.0134978 -0.786923 0.017707
0.173418 0.619019 0.440693
0.542843 0.152582 0.169795
0.180231 -0.0156381 -0.165345
0.00399107 -0.493147 -0.0794336
0.0356101 -0.429635 -0.137415
0.0729264 -0.0380901 0.436448
-0.062792 -0.307771 0.0422979
-0.512069 -0.108074 -0.0392125
0.0208966 0.337597 0.170628
-0.0270347 -0.662808 0.0351901
-0.110635 0.147771 0.763392
-0.229382 -0.101154 0.0397779
0.134828 -0.184083 0.312648
-0.0274352 -0.672491 0.0431376
0.00160099 -0.572909 -0.0042384
-0.526555 -0.431144 0.298248
-0.0259345 -0.720032 0.00546568
0.254974 -0.217714 0.356968
0.0875408 -0.228294 -0.128355
0.283357 0.286339 0.302627
-0.0267904 0.103149 0.0244318
0.129067 -0.145719 -0.532125
0.122836 -0.217873 -0.49036
-0.00125354 -0.855432 0.035472
-0.526424 -0.449688 -0.163722
0.0770269 -0.0783384 0.37152
-0.0477709 -0.785827 -0.00930051
0.0982005 -0.20228 0.0509147
-0.0194774 -0.113672 -0.311893
-0.371032 0.608477 0.0864563
-0.00897003 -0.0334867 0.0566024
-0.120186 0.531451 0.443107
-0.0351152 0.0494523 -0.406936
-0.0282291 -0.0264092 0.0305123
0.169091 -0.146696 0.0726267
-0.0183558 0.00382776 -0.381997
0.035412 -0.298829 -0.0352029
-0.134378 -0.492651 0.0256486
0.608595 0.606112 0.346157
0.00981349 -0.776944 0.00106772
-0.158618 0.150629 0.841123
-0.471136 -0.422053 0.238649
-0.713171 -0.31736 -0.161406
-0.563208 -0.448357 0.352704
-0.447373 0.0914192 -0.00439963
0.0982032 0.130238 -0.0770317
0.0987864 -0.218541 -0.121076
-0.147586 0.562227 -0.273195
0.228684 -0.258462 -0.483147
-0.0225202 -0.504912 0.00297373
0.085904 -0.335408 -0.259436
0.348296 0.390432 0.279483
0.250105 0.222315 -0.113404
0.00472741 -0.33468 0.0922603
-0.0228097 0.0414101 -0.397856
-0.357923 0.470749 0.13567
0.246914 0.364043 -0.060548
0.10311 -0.165511 -0.511496
-0.0346483 -0.764104 0.0337984
0.0508947 -0.275819 0.327781
0.0524427 -0.383083 0.215533
0.0701264 -0.197642 0.750667
0.39204 0.280581 -0.0167255
0.667875 0.0899173 0.394611
-0.0791024 0.246338 -0.0414493
-0.233633 -0.378341 0.00190067
0.0094652 -0.539547 -0.0181974
0.667315 0.222179 0.188025
-0.304669 0.106008 0.0953187
-0.308603 -0.277765 -0.0073224
0.0458701 -0.400957 0.209422
0.143088 0.268741 -0.590523
0.329 0.320299 -0.121601
-0.737016 0.0548144 -0.0513475
0.397827 0.286157 -0.00298517
0.151676 0.09936 0.258402
-0.100499 0.0347805 0.022697
-0.678589 0.0232807 -0.0639915
-0.0567936 -0.875149 0.0311293
0.139286 0.288387 -0.571795
-0.0263719 -0.66268 -0.020262
0.0265893 -0.360933 0.285509
-0.77724 -0.0506771 0.0181197
-0.0102991 -0.424075 0.0195075
0.279216 -0.236707 0.339731
-0.602709 0.338029 -0.215152
0.0781397 -0.107428 0.371507
-0.513232 -0.125904 -0.0343395
-0.0202307 -0.0263149 -0.376379
0.270733 0.252828 -0.112647
0.0183894 -0.875917 0.0174118
0.0386797 -0.303123 0.134351
-0.251656 0.359728 0.0438688
-0.0276093 -0.348877 0.0263163
0.00646797 -0.170464 0.553627
0.122415 -0.109759 -0.638667
0.0535243 -0.243274 0.0566675
0.0644733 -0.0867101 0.140893
0.495072 0.224731 0.283797
-0.412547 0.0595923 0.0106579
0.0704131 -0.223582 0.229423
-0.293605 0.478203 0.0491184
0.187652 0.146181 0.276795
-0.729696 -0.31184 -0.15669
-0.402741 0.660776 0.149171
0.10575 0.130082 -0.102193
0.233575 0.552349 -0.0863149
-0.229898 -0.101968 0.0486651
0.101385 -0.121912 -0.574696
-0.630272 -0.0173226 -0.0720347
-0.255696 -0.373672 -0.00624285
-0.590429 0.311477 -0.183945
-0.405203 0.0535069 -0.00360507
-0.149585 -0.591467 -0.0582181
-0.0629 -0.0921909 0.0253675
-0.032256 -0.301283 -0.175233
0.266514 -0.236008 0.307584
-0.107273 0.315773 -0.0798008
0.00605704 -0.498963 -0.09626
-0.0187736 -0.505384 0.010951
0.389643 0.392125 -0.109467
0.178132 -0.0664517 -0.169145
0.662744 0.217117 0.198959
-0.0160922 -0.0501736 0.0300307
-0.29256 0.0992221 0.105657
-0.436203 -0.484989 -0.122541
-0.400584 -0.183477 -0.0264484
0.160951 -0.152097 0.344664
-0.0712267 -0.633405 0.00276635
-0.0378427 -0.32256 -0.146575
0.361688 -0.267157 -0.654171
0.217891 -0.27432 0.489053
0.132952 -0.175306 -0.492501
-0.0108748 -0.0449712 -0.361891
-0.405123 -0.191266 -0.0238017
0.0553059 -0.0132096 0.0997413
-0.133676 -0.199554 0.0483251
0.169558 0.143471 0.300005
-0.11419 -0.219493 0.0281275
-0.00444824 -0.376648 0.0470683
0.370536 -0.00183047 0.392669
-0.146166 0.517661 0.474896
0.191449 -0.268213 0.424117
0.326611 0.368184 0.289693
0.32992 0.209614 -0.0143772
0.230305 0.0711845 -0.171215
0.0214746 -0.476053 0.114245
0.0570107 -0.188595 0.679349
0.0928163 -0.0245168 -0.697515
0.18146 -0.143937 0.0816099
-0.266578 -0.546115 -0.0888456
0.292803 0.285928 0.30932
-0.33748 -0.398981 0.147474
-0.0181018 -0.400515 0.0321021
-0.396005 0.0384957 0.00671363
-0.00496581 0.271728 0.311093
-0.105157 0.307485 -0.106732
-0.0206828 -0.643765 0.00371405
0.0325043 -0.227395 0.551792
-0.0208307 -0.15961 -0.301515
-0.0110234 -0.0160143 -0.375925
0.119564 -0.333792 0.270557
-0.0461757 -0.333347 0.0305429
-0.462915 0.104655 -0.0333656
-0.118781 -0.211761 0.0276067
-0.0608115 -0.568651 0.00548235
-0.0500792 -0.806544 0.00840805
0.0660845 -0.252059 0.188053
0.00826048 -0.40168 0.0180218
0.0684043 -0.360904 -0.219641
0.0909485 0.156582 -0.113218
0.477909 0.0531373 -0.43516
0.0543883 -0.0132583 0.000362931
0.0172919 -0.274877 0.0353467
-0.252376 -0.55392 -0.0898355
-0.419971 -0.500704 -0.133001
0.2493 0.313261 -0.0800939
0.107375 0.506664 0.291824
0.387968 -0.173263 0.373459
0.595472 0.47288 -0.113509
0.0727824 -0.374808 -0.219502
0.161789 0.00641299 0.615704
0.326435 -0.0181543 0.356403
-0.0593373 -0.828747 0.00534093
0.237821 0.14388 0.000148619
0.0992555 -0.104298 0.337912
-0.289576 -0.317925 -0.00523123
0.468891 0.0111973 0.374256
0.267981 0.0894456 -0.309955
-0.131457 0.615592 0.550365
0.00747768 -0.120327 0.608091
-0.197466 0.209493 0.0269224
0.038004 -0.198513 0.672096
-0.206222 -0.102445 0.0459069
0.110553 -0.0554267 -0.597955
0.413664 0.0766896 0.151484
-0.163791 -0.473864 0.0251546
0.480952 0.168918 0.193125
-0.144864 -0.185719 0.0183081
0.0295693 -0.284467 0.309109
0.238027 -0.0891091 0.0848133
-0.0341424 -0.316539 -0.168462
0.0760549 -0.189667 0.680731
-0.716368 0.479851 0.0806984
-0.315248 0.297821 0.0658968
-0.0201563 -0.404349 0.0215745
-0.622099 -0.493971 0.417293
-0.0389157 0.10461 0.645803
0.0199147 -0.324163 0.0897333
-0.226401 -0.0369691 0.0564557
-0.19046 -0.415832 -0.00503261
-0.380899 0.345627 0.0349056
-0.0371965 0.0510507 0.0159933
-0.387779 -0.400149 0.170752
-0.000548901 -0.163404 0.558749
0.15895 -0.27776 0.432741
-0.0171066 0.0391776 0.0374029
-0.317373 -0.278952 -0.00299067
0.355853 0.328128 -0.114842
0.105001 -0.297363 0.354053
0.148569 -0.120794 -0.170214
0.192853 0.132704 0.715163
0.539136 0.425419 -0.0919472
-0.00235472 -0.686885 -0.0147974
0.0740552 -0.0732637 0.391656
-0.459632 0.102379 -0.0255438
-0.250876 0.571464 -0.200997
0.113322 -0.149818 -0.582285
-0.280464 -0.415171 0.103681
0.244654 0.227235 0.290672
0.0230091 -0.48552 0.117042
-0.0147605 -0.156965 -0.301227
-0.37648 0.0120202 0.0202247
-0.00954088 -0.192219 0.533315
-0.0939621 -0.5996 -0.035984
0.264425 0.396229 0.574976
