-0.233286 0.407571 -0.343227
-0.167427 -0.649867 0.157386
-0.310443 -0.478224 0.171323
0.111099 0.251647 -0.0928117
0.129518 0.299944 -0.107879
-0.0430299 -0.953523 0.105031
0.551208 -0.169309 0.371496
-0.490459 -0.126784 -0.284952
-0.0768685 -0.890589 0.117548
-0.783797 0.417568 0.0415251
0.00489771 0.192698 0.143131
-0.0726101 0.0486637 0.143483
0.0330856 -0.114618 -0.16313
-0.388635 -0.15855 0.0819597
-0.0600933 0.258493 0.139317
-0.142799 -0.638427 0.228977
0.705541 -0.443613 0.172955
0.174924 -0.487504 0.279363
0.0488555 0.0541459 -0.0242956
-0.340864 -0.5118 0.155491
-0.144673 0.256668 -0.177523
-0.126832 -0.213114 -0.506424
-0.506416 -0.152793 -0.278472
-0.227569 -0.5896 0.23817
-0.215886 0.155724 0.289427
0.0810725 -0.21003 0.276421
-0.103196 0.635189 -0.272989
0.644403 -0.0707843 0.342629
0.0621531 -0.239265 0.256345
-0.311917 -0.273824 -0.154571
-0.314152 -0.287491 -0.142687
0.169888 -0.502877 0.279811
-0.0260748 0.426141 0.0603765
0.295261 0.632896 -0.210549
-0.0333491 -0.517936 0.21214
-0.0525912 -0.616187 0.0931568
-0.0184077 -0.639773 0.106674
0.00372427 -0.240672 -0.0550224
-0.0391189 -0.196141 0.131919
-0.675859 -0.152915 0.150449
-0.353152 -0.466523 0.141406
0.448077 0.0986952 0.526373
-0.703512 -0.143025 0.155476
0.485499 -0.202298 0.300176
-0.449171 -0.388355 0.169442
-0.0236361 -0.932659 0.233088
0.701829 0.358837 0.685256
0.472424 0.748835 0.178211
0.769704 0.0196484 0.337283
0.0296235 -0.96784 0.18511
-0.351605 -0.196333 0.0952568
0.0308885 -0.075132 -0.15175
-0.0462963 -0.419621 0.216619
0.549664 0.187756 0.589211
0.204078 -0.476317 0.264689
0.185497 0.498704 0.172886
0.309341 0.746739 0.148301
-0.14789 -0.250814 -0.228368
-0.184712 -0.201043 -0.393723
0.718528 0.348501 0.650315
-0.191273 -0.244975 -0.161284
-0.383619 -0.153932 0.0344651
-0.0287589 0.448456 -0.180901
-0.0355235 0.492688 0.0264062
0.131126 0.297883 -0.10909
-0.448869 0.320856 0.0121472
-0.228048 -0.609211 0.181357
0.551333 0.491816 0.155755
0.00693603 -0.689539 0.211076
-0.337104 -0.248267 -0.146655
0.225714 0.552392 0.186941
-0.0726611 -0.0450232 0.184915
-0.246197 -0.294445 0.0876056
0.163264 -0.449275 0.258206
-0.0663179 -0.657693 0.147612
-0.0461277 -0.332832 0.0501464
-0.258462 0.0430013 -0.223627
0.679707 -0.0221328 0.474037
0.23231 0.485485 0.16725
-0.0381253 -0.266503 0.167516
-0.0259959 -0.0405555 0.199852
0.543499 -0.149536 0.377779
0.336893 0.0496485 0.424797
-0.213435 0.114654 0.253891
-0.0688872 -0.218715 -0.660531
-0.340309 -0.454899 0.211594
0.10344 0.245145 -0.0963592
-0.227799 -0.283805 -0.159088
-0.14787 -0.650109 0.136014
0.444901 -0.490536 0.171625
-0.200485 0.361683 -0.244893
0.760296 0.408656 0.727059
-0.416517 -0.392608 0.162709
-0.264845 0.178536 0.323621
-0.110136 -0.728283 0.133689
0.613512 -0.112802 0.353251
-0.224831 -0.588251 0.239338
-0.133963 -0.638805 0.137665
-0.377512 0.311112 0.369792
-0.0447379 -0.283419 0.00240052
-0.0354368 -0.368821 0.162343
0.0887843 -0.715024 0.111337
-0.241129 0.416245 0.0738395
0.203181 -0.653893 0.0762072
-0.0305765 -0.332557 0.190778
0.675216 -0.0360704 0.472435
0.794691 -0.39232 0.14125
-0.169302 -0.239866 -0.324456
0.70856 -0.049412 0.319061
0.218805 0.484373 0.163899
-0.214792 0.910992 0.441333
0.482837 0.12492 0.500411
0.0256909 -0.695669 0.120301
-0.0363123 -0.917531 0.0956299
-0.375397 0.0845459 -0.169624
0.193717 0.426797 0.153063
0.496397 -0.473219 0.182279
-0.372656 0.485016 -0.451205
-0.0490573 -0.661141 0.211589
0.554584 0.187205 0.545709
0.585256 0.22763 0.575933
-0.0441907 -0.626995 0.0964368
-0.12879 -0.662829 0.152862
-0.236393 -0.525064 0.213458
0.217629 0.498355 0.159365
0.688064 0.00218802 0.514757
-0.435965 0.319493 0.0122742
-0.185962 -0.11167 -0.0751472
-0.0816915 -0.107304 0.108607
-0.0564083 -0.597645 0.108149
-0.284072 0.251193 0.358672
0.555749 -0.44376 0.155137
0.0358483 -0.745101 0.214019
-0.10381 0.194992 -0.12614
0.478829 -0.525877 0.153903
-0.0287747 0.216664 0.118543
-0.140122 -0.320419 -0.106022
0.392293 0.0694576 0.47468
-0.104193 0.033684 0.0363224
0.244452 -0.412045 0.319787
0.685005 -0.404437 0.212125
-0.0958341 -0.525845 0.0441139
-0.0168227 -0.161946 0.104508
0.642061 -0.0945493 0.314469
0.626029 -0.407907 0.204619
-0.149935 -0.596219 0.221174
-0.0871811 0.564824 -0.307773
-0.358227 0.459632 -0.428829
0.0865747 0.0494021 -0.315912
-0.0833307 -1.01494 0.147266
-0.353856 -0.141235 0.0993573
-0.186222 -0.373195 0.000775424
0.502859 -0.531235 0.121621
-0.369507 0.491589 -0.470643
0.252377 -0.39944 0.316363
0.277405 -0.403384 0.315373
0.174199 -0.620539 0.123169
-0.00432259 -0.187685 0.204195
-0.035196 -0.463549 0.211487
0.188005 -0.17278 0.284523
0.419696 0.0543787 0.450019
0.00343061 0.783083 -0.127733
0.0649096 0.121529 -0.0510421
-0.126543 -0.409053 0.0326997
-0.00888008 -0.830027 0.112685
-0.160199 0.836901 0.400384
0.573691 -0.447333 0.140729
-0.433603 0.497357 0.462931
0.138209 0.37188 0.170822
-0.33672 -0.230393 0.0359435
-0.00119036 -0.750248 0.11011
-0.312528 0.0656131 -0.25948
-0.438512 -0.374203 0.213773
-0.321741 0.283757 0.0335456
0.255711 -0.32012 0.310733
0.0197431 -0.803355 0.10123
-0.310872 0.287277 0.373915
-0.00830704 -0.931669 0.101673
0.335589 0.713344 -0.243482
0.728333 0.362237 0.683976
0.552109 -0.115187 0.368216
0.0675941 0.26289 0.176299
0.115942 0.282845 -0.111116
-0.0390997 -0.153533 0.163901
0.453656 -0.219931 0.365104
-0.234299 -0.581232 0.15677
-0.182837 -0.259338 -0.226684
-0.233378 0.0395811 -0.572848
0.487589 -0.486819 0.17682
-0.00617704 -0.376771 0.233474
-0.221125 -0.293056 0.0677701
-0.0102159 -0.236853 0.143379
0.255002 0.502475 0.161444
0.27984 0.306413 -0.421307
-0.429739 0.569461 0.491907
-0.0541923 -0.231406 -0.678229
-0.876781 0.426763 0.0419683
-0.293272 0.101603 -0.282704
-0.355184 0.408256 0.428733
-0.0191565 -0.129599 0.149389
0.0461147 -0.253269 0.181455
0.139902 0.180485 -0.330875
-0.0728448 -0.599941 0.107203
0.0374285 -0.685016 0.19535
-0.0465621 -0.814779 0.115141
0.503411 -0.203207 0.319749
-0.238987 -0.0129214 -0.49316
-0.210296 -0.359149 -0.0801835
0.188939 -0.395072 0.310899
-0.632085 0.0607933 0.246873
0.373496 0.0552315 0.480117
0.00383144 -0.273619 -0.0192674
-0.537701 0.375307 0.0237136
0.185189 -0.106187 0.345789
0.145316 0.381387 -0.128456
-0.0190426 0.176913 0.0610085
0.0123679 -0.954805 0.201718
0.0132229 -0.934309 0.19553
-0.0362971 0.00656645 0.14927
-0.0600501 0.00251271 0.0203327
0.162911 -0.172075 0.309216
0.743581 -0.343685 0.176885
-0.419501 0.468696 0.467912
-0.234944 0.401677 -0.273091
-0.462443 0.623931 0.514205
0.336192 -0.294453 0.325267
-0.203549 0.917008 0.446067
0.00279077 -0.616101 0.129126
-0.114791 -0.9282 0.163133
-0.263467 0.451051 -0.43656
0.0271547 -0.685467 0.138829
-0.0213721 0.0701411 0.161589
-0.0480752 -0.509128 0.177801
-0.352053 0.373643 0.42824
0.567547 0.258137 0.609875
0.00538779 -0.964131 0.230433
-0.3328 -0.21515 0.0389621
-0.0885528 -0.452864 0.0799976
-0.343091 -0.218772 0.0729168
-0.0201319 -0.209739 0.174496
-0.748861 0.402725 0.039936
-0.0264266 -0.123192 -0.023616
0.0764027 0.000573224 -0.251192
0.410197 -0.249723 0.2918
0.0934275 0.667296 -0.0821453
0.232036 -0.64644 0.150389
0.351376 -0.332227 0.326211
0.0426328 -0.678125 0.201768
0.501779 -0.189838 0.290157
-0.109742 -0.220052 -0.0269315
-0.0193639 -0.272571 0.170146
-0.0769893 0.549256 -0.117357
-0.15197 -0.203682 -0.495024
-0.135955 -0.211881 -0.500397
-0.140273 -0.623933 0.226913
0.292851 0.664837 -0.225089
0.0344704 -0.887237 0.195658
-0.0372925 -0.901781 0.217449
0.131568 0.169107 -0.323792
0.103399 0.324725 0.159757
0.619861 -0.0664195 0.391933
-0.028044 -0.759315 0.110889
0.055804 0.0481893 -0.0278107
0.0635053 -0.71204 0.113221
-0.109605 0.529019 0.19871
-0.284421 -0.0830811 -0.421035
-0.734659 0.402923 0.0422093
-0.0215495 0.11865 0.136396
0.451435 -0.5286 0.111807
-0.00435357 -0.924264 0.220733
0.126895 0.392941 -0.160477
0.0751307 -0.731013 0.206788
-0.159035 -0.232846 -0.346784
-0.716869 -0.14126 0.205042
0.239809 0.230353 -0.396944
-0.777757 0.421269 0.0337557
0.370856 0.774821 0.13456
0.261357 0.608136 -0.158918
0.0212374 -0.330941 0.0875688
0.157561 0.14568 -0.322539
-0.0172182 -0.560909 0.224065
-0.430477 -0.0670224 0.0719643
-0.285576 -0.277872 -0.190028
0.0037976 -0.581968 0.208719
0.00298144 -0.580336 0.128912
-0.000552051 -0.0484808 0.16883
-0.00469104 -0.198107 0.215019
-0.323912 -0.533472 0.223332
0.293053 -0.357085 0.310976
-0.240164 -0.321229 0.0947925
-0.229604 0.491109 -0.583387
-0.426899 0.151402 -0.198069
-0.21255 -0.0774928 -0.0690605
0.148456 0.410267 -0.139394
0.490637 0.148331 0.523024
-0.270072 0.194261 0.294432
0.0518728 -0.0562989 -0.233743
0.771115 0.340003 0.645741
0.228455 -0.455645 0.302835
0.284571 0.718189 0.161021
0.0572152 -0.273024 0.188142
-0.112113 -0.862027 0.159069
-0.162967 -0.441635 -0.0300373
-0.505141 -0.286917 0.224058
0.527568 -0.13256 0.369243
-0.0799704 -0.758107 0.149084
-0.595507 -0.206035 0.237067
-0.332813 0.278531 0.371792
-0.243062 0.454997 -0.290611
-0.131411 -0.609848 0.154224
-0.245503 0.0393528 -0.553965
0.021803 -0.932797 0.225825
0.186538 0.207389 -0.400824
-0.467171 0.345029 0.0170567
0.846157 0.0828437 0.308733
-0.277621 0.0936035 -0.337944
-0.0654744 -0.473213 0.168014
0.471221 0.077464 0.480928
-0.313912 0.528259 0.0827869
0.0266409 -0.957235 0.184592
0.486211 -0.219331 0.309875
0.325408 -0.577389 0.0869344
-0.0860208 -0.430744 0.0656963
0.472803 0.748061 0.173226
0.0091696 -0.522467 0.147575
-0.194592 -0.328859 -0.133546
-0.183516 -0.636408 0.233143
-0.0468253 0.471032 -0.207921
0.414787 -0.508747 0.179899
0.647592 0.336288 0.641165
-0.263174 0.467363 -0.460515
0.469379 -0.215413 0.339507
0.252185 -0.0739235 0.369424
0.327208 -0.547699 0.128071
-0.11706 0.111432 0.124696
0.0187351 -0.942125 0.14138
-0.114526 -0.508917 0.0262782
0.648016 -0.422211 0.217833
0.0764989 0.155003 -0.0516077
0.0398635 -0.695507 0.203675
-0.0636464 -0.392107 0.0608213
0.106033 0.259917 -0.115492
-0.0989363 -0.221124 -0.516323
0.508832 0.148112 0.501291
-0.0579331 -0.41012 0.149576
-0.0372608 -0.973912 0.084112
0.0374888 0.00214998 -0.00715597
0.0703131 0.124563 -0.0310453
-0.0795261 -0.500091 0.162462
-0.0194558 -0.233918 -0.747192
-0.0395971 -0.725301 0.222243
0.661416 -0.0625213 0.314571
0.11325 -0.212546 0.266657
-0.0334704 -0.516048 0.112623
-0.00720291 -0.968736 0.211666
0.693648 -0.0523632 0.336781
-0.0981419 -0.983099 0.156248
0.0676155 0.150749 -0.0593363
-0.0357432 -0.883205 0.10301
-0.237163 -0.0910736 -0.409584
0.163373 -0.154528 0.329648
0.00949901 -0.486448 0.118932
-0.220506 -0.226006 -0.279573
-0.588661 -0.0647296 -0.436307
-0.00910197 0.0125364 0.148306
0.0681507 -0.0684581 -0.203305
-0.195513 -0.0609499 -0.105178
0.0194237 -0.889685 0.0959443
0.53556 0.513013 0.160774
-0.0183948 -0.0741699 0.18161
0.109902 -0.680139 0.104351
0.222819 -0.435891 0.326128
0.316288 -0.626053 0.135373
0.187858 0.2273 -0.413843
-0.549893 0.0345947 0.169599
-0.36304 -0.440515 0.156901
0.234136 0.296413 -0.433413
0.0616371 -0.509315 0.282525
-0.243482 0.350851 -0.232901
0.0571245 0.0934611 -0.0373952
-0.0277317 -0.24876 0.16689
0.0414413 -0.702931 0.210746
0.183799 -0.386696 0.270435
0.0265991 -0.96796 0.146799
-0.423061 0.600997 -0.596544
-0.0525795 -0.9766 0.226011
-0.319381 0.0102654 -0.153293
-0.0746963 0.564613 -0.150754
-0.302664 -0.304517 0.0497395
0.339981 0.503432 0.191203
-0.142003 -0.197267 -0.51208
0.240554 0.51496 0.174307
-0.0110468 0.423011 0.0772603
-0.0965579 -0.110883 0.0610464
0.707515 -0.0483837 0.2998
-0.0375773 -0.419419 0.234043
-0.161903 -0.683888 0.156459
0.0319381 -0.931053 0.118782
0.034864 0.0316675 -0.022651
-0.606387 0.0671955 0.233795
-0.0199538 0.430917 0.0409928
-0.0146762 -0.116583 0.142033
-0.483563 -0.319357 0.152482
-0.304723 0.418304 -0.367397
-0.111782 0.564864 -0.327184
-0.184946 -0.219694 -0.405971
0.310424 -0.299797 0.337413
-0.219618 -0.32412 -0.136137
0.00268117 -0.174694 -0.131557
-0.125233 0.203574 -0.0914328
-0.249768 0.021283 -0.519376
-0.336299 0.578227 0.0927253
-0.10349 0.216321 -0.0734963
0.365171 -0.59008 0.134702
-0.116818 0.569525 -0.355208
-0.172197 -0.380456 0.111403
-0.0515091 0.564501 -0.140998
0.0502603 -0.661235 0.206317
-0.0788733 -0.993091 0.0931
0.350072 -0.284429 0.279453
-0.0842573 0.150748 -0.0422515
-0.267499 -0.574432 0.152451
0.683344 -0.0363112 0.294616
0.186186 0.495467 0.183758
0.0952133 0.358659 0.150133
-0.565237 0.785389 0.133834
0.148043 0.360373 -0.14536
-0.516371 0.000562773 0.117666
-0.252387 -0.311075 -0.0841408
-0.235814 0.553448 -0.681861
-0.446917 0.611661 -0.620261
0.127968 0.413264 -0.175419
0.220207 -0.0981315 0.347067
-0.0511085 -0.0267696 0.203173
0.0801605 -0.0530949 -0.22478
0.645077 -0.0339275 0.441768
-0.157132 0.1005 0.299197
-0.0523613 0.0365056 0.117512
-0.174757 -0.465541 0.116152
-0.0792483 -0.737013 0.210168
-0.0922056 -0.895968 0.163006
-0.260863 -0.0362397 -0.110735
0.115954 0.365859 0.16184
-0.190321 -0.280317 -0.195606
0.649912 -0.0939485 0.401789
-0.313939 0.263722 0.39496
0.613013 -0.415397 0.153936
-0.254107 -0.324976 -0.0974187
0.817664 -0.332435 0.170453
-0.230826 -0.367333 0.0958173
-0.261151 0.164869 -0.392976
0.0646133 0.625549 -0.0767699
0.167418 -0.10292 0.282256
0.236171 -0.0819456 0.293784
-0.0842389 0.386939 0.162762
-0.529203 -0.0198627 0.116573
-0.240988 0.546869 -0.675629
0.868248 -0.337155 0.170377
-0.4326 0.180713 -0.215997
-0.35636 -0.485331 0.230114
-0.0835003 -0.477395 0.153347
-0.0742987 -0.665027 0.192674
-0.425629 0.550013 0.499856
0.495219 0.127532 0.49376
-0.00672072 -1.0123 0.0969067
-0.107483 -0.251325 0.00453963
-0.0583203 -0.0350715 0.223333
0.207787 0.447187 0.170673
-0.152701 -0.697379 0.198276
-0.0655555 -1.00133 0.222602
0.0830739 -0.560616 0.285448
0.191229 -0.41404 0.323203
-0.176456 0.280176 -0.17599
-0.257378 0.503965 -0.575053
0.725032 -0.375189 0.124929
-0.310016 0.028308 -0.186767
-0.425941 -0.0667496 0.0976608
0.153175 0.100363 -0.308328
-0.288573 -0.545248 0.163678
-0.120508 0.0853221 -0.0635947
0.652075 -0.0352701 0.467488
-0.138639 0.236996 -0.166195
-0.00824259 -0.662896 0.120689
-0.27004 0.0121143 -0.186233
0.0206406 -0.827208 0.226689
-0.177641 -0.3258 -0.128012
-0.633269 -0.131361 0.205561
-0.0313803 -0.385888 0.234741
0.167818 0.395651 0.153137
-0.24895 0.058244 -0.257755
0.714157 -0.427997 0.137736
-0.245876 -0.277976 0.0753677
0.121045 -0.501573 0.298768
0.0893923 0.193209 -0.0766189
0.013398 -0.210663 0.199393
0.119195 0.381301 -0.0515315
0.630373 -0.0749365 0.437957
-0.0109782 -0.186869 -0.116445
-0.142215 -0.454432 0.0549509
-0.246533 0.212977 0.356883
-0.0337821 -0.299909 0.0133303
0.371648 -0.539448 0.111681
-0.0415885 -0.17549 0.165157
0.47868 0.73156 0.170324
0.0241802 -0.270845 0.247619
-0.169638 0.884568 0.417555
0.139986 -0.539467 0.300949
-0.0442616 -0.895555 0.0983651
0.110399 0.254877 -0.0923941
0.0823547 -0.509184 0.210819
-0.148181 -0.24307 -0.280256
0.124565 0.0898053 -0.338749
0.162297 0.145203 -0.368984
-0.1058 -0.247958 0.0168061
-0.139059 -0.226496 -0.537416
0.337315 0.562704 0.16941
0.356227 -0.311037 0.294251
-0.0217575 -0.339755 0.121927
0.0844328 -0.583555 0.292744
-0.0399685 -0.40936 0.17951
-0.107763 0.141387 -0.0908101
0.151189 0.379056 -0.141104
-0.224678 0.389368 -0.349851
0.312429 -0.053892 0.340909
-0.241722 -0.0108999 -0.492232
-0.0235144 -0.310608 0.172251
-0.0122481 -0.546536 0.118908
-0.06006 -0.368123 0.0508512
0.223794 0.467885 0.16491
-0.187667 0.186211 -0.129776
-0.236384 0.408512 0.0724192
-0.439387 0.319365 0.0178133
0.393437 0.631195 0.162174
-0.0468709 0.0389992 0.134795
-0.105488 -0.197009 -0.570053
0.196349 -0.107832 0.298189
-0.0577605 -0.384597 0.0461237
0.00564848 -0.573397 0.249884
-0.0787211 0.34176 0.16237
-0.586392 -0.19946 0.155029
0.696512 -0.384341 0.14719
-0.0356672 -0.0909752 0.0947941
-0.17872 -0.619491 0.23324
-0.15442 -0.223086 -0.235165
-0.24523 0.524371 -0.562459
-0.053632 -0.724056 0.218407
0.0146102 -0.0731013 0.158527
0.0349509 -0.415485 0.169351
0.0439685 -0.152418 -0.096768
-0.288832 0.11023 -0.300597
0.0524613 -0.673811 0.114421
-0.188009 -0.228645 -0.270189
0.139995 -0.724477 0.162787
0.214595 -0.634688 0.15415
-0.209393 -0.239467 -0.248888
0.2611 0.518573 0.144114
-0.199551 -0.0708315 -0.114564
0.221815 -0.0744789 0.360968
0.007188 0.273229 -0.0419389
0.0696621 -0.224722 0.195816
0.0404835 -0.687733 0.115218
-0.243491 0.189075 0.295885
-0.178816 0.219938 -0.106431
-0.369528 -0.192977 0.0826208
0.169226 0.264714 -0.409237
-0.403571 -0.410197 0.213152
-0.0999261 -0.223497 -0.527928
0.199881 -0.0797064 0.315349
-0.224144 -0.193327 -0.318133
-0.197917 -0.0469376 -0.132483
0.245058 -0.0785563 0.349832
0.514301 0.183484 0.5798
-0.0497779 0.309683 0.135196
0.0292661 0.287216 -0.0535411
0.372301 -0.533181 0.175221
-0.0640525 -0.408837 0.0557571
-0.0136965 -0.121706 0.000973003
0.0537093 -0.592267 0.260684
-0.177078 0.170111 -0.0854491
0.267976 -0.625872 0.0738611
0.303773 -0.0810597 0.326875
-0.0845536 0.417717 0.16171
0.389309 0.0214617 0.399104
-0.106856 0.526573 0.215917
-0.0134695 -0.341976 0.245173
-0.214159 0.205127 0.320083
-0.506224 -0.250247 0.170017
-0.219844 0.319405 -0.203642
-0.148946 0.240384 -0.183903
0.00483651 -0.0625221 -0.169642
-0.270045 -0.268061 -0.148699
-0.167709 -0.298461 -0.155432
0.0109419 -0.848776 0.212994
0.334453 -0.570763 0.101661
0.151622 0.402267 -0.161721
0.728821 0.385485 0.707685
0.418168 0.0501219 0.464509
-0.19427 -0.119014 -0.0491184
0.506107 -0.16991 0.303525
-0.0410493 -0.342061 0.191274
0.0357872 0.0328285 -0.0204054
-0.104519 -0.208065 -0.454557
-0.11778 -0.409365 0.00227693
-0.196433 -0.367765 -0.0918539
0.226438 0.195809 -0.330432
-0.232941 -0.2974 -0.133589
-0.187641 -0.0876435 -0.113567
-0.268221 0.617517 -0.320013
-0.137301 -0.389128 -0.0232397
-0.0179786 -0.463707 0.231394
-0.0122148 -0.795357 0.236032
0.0479883 -0.230234 0.25347
-0.10946 0.210786 -0.0861296
-0.129723 0.0283237 -0.0147597
0.260454 0.604707 -0.15983
0.427355 0.105458 0.511016
0.0500259 -0.907845 0.164954
-0.0847757 0.413616 0.031592
-0.121738 0.0660795 -0.0180584
-0.0492531 -0.210626 0.00252831
-0.206734 0.276613 -0.165127
-0.0158679 0.230933 0.00780605
0.0429693 -0.517139 0.214147
-0.039 -0.400587 0.147758
-0.013538 -0.0984187 0.16532
-0.474453 -0.343341 0.138874
0.0159701 -0.544395 0.253957
0.026984 -0.787208 0.20877
-0.0389797 -0.912195 0.243253
0.614757 -0.454624 0.123044
-0.736803 0.399493 0.0402293
0.00422864 -0.612816 0.243846
-0.114214 -0.204827 -0.526501
0.105545 0.257015 -0.07646
0.366293 -0.000670469 0.379597
0.6052 -0.106644 0.384083
-0.304952 0.0655528 -0.276349
-0.0608408 -0.531888 0.101854
-0.0686229 -0.829285 0.233425
-0.427 -0.0637427 0.0871267
0.503387 -0.187357 0.320029
-0.115129 0.0998141 0.120456
-0.218713 -0.388085 0.0704944
0.185873 -0.167433 0.28784
-0.120086 0.22969 -0.157749
-0.401016 -0.129491 0.0960456
0.141307 -0.696853 0.100858
-0.473504 -0.0298408 0.134202
-0.524608 -0.0113282 0.165758
-0.265466 0.460984 -0.418083
0.137707 -0.212699 0.240397
-0.259637 0.491819 -0.565107
-0.239434 0.188634 0.348832
0.0927408 0.192292 -0.0522989
0.617595 -0.434664 0.14915
-0.168913 0.223285 -0.133336
0.166771 0.404389 0.165651
-0.341888 -0.426864 0.15791
-0.496171 0.352797 0.00963765
-0.102718 0.528645 0.206293
0.0174296 -0.209782 -0.0597357
0.0124494 -0.440731 0.237911
-0.0880597 -0.981195 0.109438
-0.535976 -0.304803 0.199483
-0.0366104 -0.225839 0.0238606
-0.09808 0.278811 0.100202
0.369064 0.508027 0.195617
0.552869 -0.485733 0.13452
-0.572181 -0.201695 0.182469
-0.00243868 -0.507032 0.232197
-0.0510099 -0.768075 0.0970669
0.200437 0.193403 -0.323216
-0.117171 -0.710656 0.163277
0.0331539 -0.831195 0.196262
0.688728 -0.0130045 0.530752
0.0317595 0.308747 -0.0518045
-0.19166 -0.124943 -0.0566659
-0.243544 -0.0539317 -0.464189
-0.151428 -0.359544 -0.0712699
-0.0037088 0.0264478 0.144217
-0.0964816 -0.949301 0.156705
-0.229298 0.520741 -0.575504
0.00198411 -0.0633168 0.150705
-0.512299 -0.129043 -0.336208
-0.2362 -0.530795 0.147569
-0.00868829 -0.122599 0.0966629
0.754493 0.426507 0.7442
-0.335635 -0.221899 -0.172363
-0.569056 -0.229196 0.223529
0.138789 0.320824 -0.12517
0.160519 0.480024 -0.197541
-0.445147 -0.378133 0.202099
0.240766 -0.360747 0.334216
-0.320331 -0.500253 0.162719
-0.0882528 -0.695571 0.126347
-0.262771 0.06944 -0.273336
0.00717949 -0.708611 0.116474
0.601923 -0.123761 0.361531
-0.472381 0.356728 0.013907
-0.100706 -0.430829 0.0601536
0.0788845 -0.0769888 -0.14334
-0.0630645 -0.00773728 0.0288032
-0.320667 -0.487832 0.153414
0.386019 -0.559149 0.113202
-0.237888 -0.540672 0.220265
-0.266803 0.159214 -0.390216
0.717936 -0.415429 0.163518
0.363893 0.0267299 0.38108
-0.253591 0.468475 -0.464624
0.627376 -0.44004 0.130566
-0.438155 -0.421544 0.174901
0.0706997 0.231889 0.165943
0.216116 0.183722 -0.337747
-0.0319675 -0.0351304 0.165649
-0.127995 0.131257 -0.100595
0.00167097 -0.443637 0.124981
0.0713723 0.157642 -0.0646629
0.240069 -0.407099 0.2778
0.0260883 -0.540275 0.218398
0.0368027 0.0133975 -0.00987773
-0.0617965 -0.668331 0.135933
-0.0885323 0.653347 -0.349032
0.527131 -0.180084 0.304091
-0.498464 -0.350592 0.196549
-0.0238714 -0.672568 0.0962061
0.404067 -0.263411 0.336824
-0.17595 -0.124859 -0.0564288
0.576397 0.202735 0.583979
-0.0345573 -0.27064 0.184888
-0.0282152 -0.141636 -0.00179475
-0.144716 -0.203579 -0.405331
-0.0159235 -0.0927736 0.087152
-0.0186713 0.165427 0.134301
-0.363469 0.588053 0.0983869
-0.218105 -0.103015 -0.368768
-0.341488 -0.489877 0.20619
-0.0201149 -0.43004 0.234065
-0.521731 -0.287867 0.210403
0.0462088 -0.100755 -0.129779
0.00615992 -0.295477 0.155657
-0.0923811 -1.00718 0.174462
0.0123212 -0.496253 0.122462
0.310408 0.00406437 0.387952
-0.294592 0.0520683 -0.163888
0.770352 0.0189119 0.29564
0.0928843 -0.657349 0.191303
0.267384 0.667093 0.173693
0.349301 0.00164203 0.450043
-0.2894 0.0120664 -0.198516
-0.0784696 -0.683701 0.135701
0.523328 0.196731 0.551144
-0.153576 -0.149774 -0.0340704
0.75164 0.00930645 0.316909
0.249258 0.506995 0.173059
0.326472 -0.00406411 0.413987
-0.315829 -0.260166 0.0643909
0.057308 -0.29584 0.17627
0.153966 0.458885 -0.176999
-0.09122 -0.0388872 0.0594565
0.0431765 -0.628061 0.187167
-0.429805 -0.166426 -0.269101
-0.254396 0.547291 -0.627629
-0.0924101 -0.905176 0.190992
-0.0906571 0.00802429 -0.00688627
-0.0568445 -0.0723731 0.0524072
-0.138211 0.0474237 0.00828083
0.308947 0.686027 -0.22622
0.357325 -0.274995 0.335717
0.653013 0.292616 0.630419
-0.334115 -0.433139 0.215828
-0.30628 -0.192692 0.0825243
-0.0608043 -0.21233 -0.660109
0.104394 0.36164 0.124384
0.852235 -0.355517 0.124393
-0.0989645 -0.917184 0.176998
0.134419 -0.200753 0.232712
-0.100975 0.662483 -0.316373
0.656309 -0.434773 0.12641
0.146877 -0.527645 0.25453
-0.0323979 -0.0460427 0.194466
-0.0258396 0.0949085 0.101197
-0.0338229 -0.433296 0.162716
0.133374 0.458221 -0.160923
-0.0991733 -0.825091 0.192829
0.0531472 -0.525725 0.191336
-0.551856 -0.269125 0.213529
0.140031 -0.654 0.176891
-0.218721 -0.289936 -0.177818
-0.252263 -0.297019 -0.0739704
-0.221336 -0.141297 -0.383227
-0.360184 0.303264 0.0696667
-0.223375 -0.0241178 -0.145394
-0.339309 -0.166632 0.0721467
-0.371341 0.303168 0.0354504
-0.363075 0.04714 -0.180565
-0.40488 0.483901 0.437179
0.868027 0.0819307 0.299299
-0.141249 0.61312 0.242767
0.0470355 -0.729397 0.102412
-0.225245 -0.628555 0.206666
-0.345835 0.589403 0.0931824
-0.159921 0.821651 0.409261
-0.121303 -0.598747 0.212021
0.579243 -0.13106 0.338531
0.153219 0.367048 0.162559
-0.00900197 -0.354757 0.226865
-0.0800507 -0.496125 0.0734256
0.245246 -0.0670069 0.349613
-0.223385 -0.0878443 -0.417464
0.17807 -0.447363 0.335435
0.328485 0.501808 0.186851
-0.497851 -0.324405 0.168932
0.142045 -0.52656 0.234069
0.204688 -0.481528 0.296275
0.154358 0.374253 -0.131353
0.554547 -0.470064 0.125687
-0.12265 0.589731 0.234084
0.00550501 -0.311181 0.225096
0.367243 0.797683 0.121631
-0.0329067 -0.375309 0.151707
-0.843571 0.412856 0.0430917
0.0362813 -0.242238 0.18296
-0.0296784 -0.342347 0.110954
-0.00762205 0.437283 0.0435157
-0.185351 -0.60148 0.156575
0.35152 0.598315 0.166821
0.229152 -0.338965 0.270493
0.71828 -0.364747 0.171675
0.301011 0.528453 0.14834
-0.825813 0.417043 0.0565013
-0.0370755 0.0455232 0.128187
0.759203 0.010016 0.30308
-0.204054 -0.109358 -0.341797
-0.173801 -0.152737 -0.0799077
-0.0757256 -0.0234992 -0.00782216
-0.0303603 -0.689947 0.213111
-0.239172 0.443104 -0.415117
0.0619848 0.649744 -0.103307
-0.361381 -0.199913 0.0725872
0.538707 -0.188905 0.33948
-0.060108 -0.702411 0.204599
-0.00505845 0.439229 -0.153361
-0.195595 -0.628664 0.158282
0.135944 -0.17683 0.300632
-0.0389152 -0.430357 0.235329
-0.667083 -0.15346 0.17711
0.149185 0.391603 -0.148932
-0.485936 -0.0168878 0.0894912
-0.0677128 -0.507669 0.19946
-0.0894275 -0.724189 0.137123
-0.00304336 0.327027 0.0970235
0.509667 -0.452608 0.114923
0.342088 -0.270659 0.322235
-0.279472 0.246047 0.354888
-0.0188982 -0.428323 0.148675
0.0428885 -0.186295 -0.0634443
0.533917 -0.102545 0.334043
-0.354099 0.318936 0.388496
0.433587 0.518336 0.194944
-0.403104 0.108715 -0.205837
0.0350235 -0.841483 0.151407
0.258816 -0.320405 0.285976
-0.204909 -0.615 0.245185
0.584963 -0.433733 0.185393
0.665755 0.311936 0.66152
-0.0649109 -0.723619 0.129294
-0.0772189 0.551285 -0.0847939
-0.00194031 0.273955 0.0997803
0.143041 0.445531 -0.170512
0.523659 0.816949 0.26043
0.0205493 -0.896544 0.126857
-0.0208498 0.441667 0.0461941
0.361651 -0.561875 0.151862
0.576456 -0.0886608 0.360861
0.296344 0.750872 0.142639
-0.629893 0.157785 0.187139
0.00959069 -0.0629595 -0.00732325
-0.426035 0.523016 0.470173
0.808091 -0.37632 0.140142
0.121356 -0.475853 0.326389
0.405648 0.0129405 0.404611
-0.193073 -0.230326 -0.315475
-0.00361563 -0.721483 0.217341
-0.361848 -0.150303 0.0870352
-0.0101495 -0.0694227 -0.00704397
0.496707 -0.479829 0.161509
-0.126445 -0.714947 0.17432
-0.0855749 -0.990091 0.222132
-0.0118567 0.132315 0.139898
-0.00777064 -0.608235 0.219267
0.179605 0.261019 -0.397728
0.0695411 0.254326 0.159598
0.620512 -0.460533 0.183778
0.000445181 -0.0775571 0.143137
-0.0202001 0.595493 -0.0386723
0.587792 -0.111246 0.379512
0.414824 -0.261638 0.326667
-0.385632 0.330051 0.0269112
0.024577 -0.394853 0.135999
0.035048 -0.98856 0.18989
-0.355869 0.0847264 -0.21883
-0.145727 0.144721 -0.0752149
-0.460984 -0.326445 0.146317
0.0286395 -0.197368 0.15901
-0.291096 -0.226076 -0.191913
0.0781803 0.169725 -0.0670779
-0.595304 0.12161 0.184448
-0.669757 -0.109712 -0.341568
-0.0848667 -0.635256 0.118269
-0.461459 0.689195 0.119181
-0.333981 -0.191535 0.0941395
-0.709472 0.393904 0.046788
0.089372 0.0266829 -0.299139
-0.225605 0.144313 0.271392
-0.0782472 -0.507669 0.0875475
-0.0893779 0.0752939 0.130778
-0.273216 -0.257022 0.0889904
-0.409491 -0.454411 0.202131
0.409931 0.0447965 0.440872
-0.11739 -0.192503 -0.583541
-0.23362 0.377821 -0.229677
0.00645845 -0.990184 0.110176
0.172854 -0.157675 0.340259
0.530515 0.182341 0.528035
-0.627907 0.40332 0.0341827
0.0346611 -0.819195 0.165146
-0.219816 -0.327461 -0.0517997
-0.0423195 -0.629003 0.223046
0.723344 -0.0441749 0.320035
0.241875 -0.621104 0.0806051
-0.615107 0.0680341 0.238441
-0.290917 -0.469011 0.171653
0.307317 0.329184 -0.429104
-0.011949 -0.393704 0.0909059
0.0456661 0.0590365 -0.0379267
-0.691253 -0.0909768 0.206467
-0.163714 -0.200731 -0.0289968
-0.164801 0.184981 -0.102684
-0.104731 -0.858296 0.184144
-0.255294 -0.0538576 -0.12375
-0.320757 -0.527352 0.176338
-0.167561 -0.673587 0.20925
-0.011412 -0.107688 -0.00669376
0.843493 0.0874336 0.294
-0.216932 0.447024 0.0719064
-0.34756 0.284976 0.393531
0.419659 0.0784112 0.494168
0.380368 0.024005 0.384941
-0.0531368 0.336848 0.153204
0.0317019 -0.389672 0.160206
0.214254 -0.632053 0.0736155
-0.657011 0.0911317 0.266083
-0.357064 -0.250266 0.0593376
-0.280712 0.133287 -0.370715
0.1441 -0.714629 0.131421
0.209392 -0.128079 0.320363
-0.19115 -0.308979 -0.166243
0.756285 0.426693 0.739469
-0.0570208 -0.546853 0.158524
-0.00967296 0.426413 0.0556341
-0.407464 -0.127486 0.0831043
-0.428427 -0.430208 0.156451
-0.126718 0.195585 -0.107687
-0.121027 -0.199932 -0.475504
-0.369821 -0.197574 -0.255707
-0.147371 -0.313677 -0.134211
0.436085 -0.244185 0.347464
0.0906637 0.670504 -0.0882736
0.0550149 -0.568696 0.197865
0.0252902 -0.0198838 -0.025166
-0.181847 0.335475 -0.183509
0.0142493 -0.865723 0.20366
-0.139945 -0.439229 -0.00486445
-0.0821448 -0.560448 0.170554
0.611952 0.252072 0.605304
-0.00334488 -0.561739 0.226507
-0.00124596 -0.150189 0.140355
-0.232444 -0.565397 0.15256
-0.0511029 -0.0331261 0.0394139
-0.0401547 -0.476072 0.106167
-0.165428 0.140987 -0.0819717
-0.357429 -0.491016 0.180899
0.074952 0.16612 -0.0434168
0.0132271 -0.855243 0.10106
0.013694 -0.429573 0.141802
-0.203226 0.170439 0.0955619
0.4334 0.0793112 0.522512
0.0705637 -0.566573 0.269651
0.0448472 0.0705544 -0.0281171
-0.601728 -0.227528 0.199877
0.00284437 -0.047924 -0.0152209
0.147035 0.356445 -0.138786
-0.0130077 -0.226126 -0.761867
0.0746365 0.649067 -0.0808667
-0.235713 0.5382 -0.601381
-0.0427597 0.609885 -0.0391731
-0.642747 -0.205585 0.167415
0.0324763 0.300277 -0.0374523
0.376571 0.0270987 0.471483
-0.101415 -0.660501 0.201717
-0.0784637 -0.671997 0.141481
-0.195889 -0.249727 -0.253921
-0.430984 -0.395307 0.157024
-0.285968 -0.543299 0.217774
0.171908 -0.62424 0.0954789
0.0187877 -0.0295275 -0.000501821
-0.514035 -0.244042 0.206539
0.632365 0.291347 0.631333
-0.739821 0.402339 0.0313195
-0.122184 -0.20229 -0.551293
-0.287424 0.515019 0.0669277
-0.0651781 -0.492763 0.0836384
-0.220871 -0.135224 -0.358195
0.244557 -0.0303155 0.343501
0.269587 0.244956 -0.369749
0.0257593 -0.554928 0.120407
-0.186179 -0.358816 -0.0841347
-0.357675 -0.148904 0.0557776
0.869408 -0.334347 0.135525
0.58036 0.249343 0.601869
-0.127401 -0.527349 0.0636408
-0.10385 -0.462067 0.0415139
0.488125 0.740936 0.1795
-0.217265 -0.365557 0.101336
-0.142461 0.140986 -0.120308
-0.111829 0.527917 0.215991
0.029704 -0.237943 0.253483
0.00478432 0.769075 -0.113428
0.209765 0.264755 -0.330619
-0.0878315 0.116826 0.00370533
-0.155382 0.156284 -0.0960269
-0.0647808 -0.103578 0.116818
0.804645 0.0324003 0.282939
-0.106723 -0.839237 0.176854
0.00778187 0.3558 0.0930424
0.119652 0.153594 -0.341768
0.751256 0.00629443 0.327507
-0.0392037 -1.01918 0.231039
-0.0798893 0.128345 -0.011815
0.132096 0.137097 -0.299907
0.628723 -0.468541 0.142504
0.733736 -0.0100394 0.302221
0.0102941 -0.510149 0.146531
0.228121 -0.366595 0.300749
-0.0266675 -0.546411 0.13856
-0.403251 0.445067 0.453147
-0.246777 -0.3076 0.0875771
-0.376827 -0.216379 -0.196073
-0.140838 -0.224895 -0.306827
-0.160678 -0.371237 -0.0689475
0.666965 -0.0528595 0.300701
0.23847 -0.115894 0.310461
-0.542552 0.358416 0.0191939
0.135592 0.197333 -0.339288
-0.516544 -0.126102 -0.339693
0.00680416 -0.216838 -0.743941
0.00651312 -0.271376 0.155844
-0.0358853 -0.111308 0.0689384
-0.0845067 -0.811149 0.115011
-0.189494 0.901605 0.446832
0.616821 -0.0888552 0.411752
0.000656176 -0.157749 0.129457
-0.220078 -0.277315 -0.190062
0.0535245 0.334496 -0.0428773
-0.186454 -0.237884 -0.375549
-0.0556099 0.0357389 0.121211
-0.0487504 -0.328912 0.215236
-0.00633835 0.161367 0.150129
-0.0227168 0.725152 -0.102864
-0.0233478 0.683176 -0.0830488
0.302573 6.24776e-05 0.416768
0.255468 0.328091 -0.382216
0.0407149 -0.593424 0.184796
-0.116997 -0.22315 0.00487208
-0.390147 -0.210745 -0.20004
0.0477221 -0.514443 0.23159
-0.0812509 -1.01262 0.217885
-0.622989 0.380509 0.0208939
-0.222999 -0.573059 0.243134
-0.354664 -0.203617 -0.236962
-0.230964 0.521736 -0.593459
-0.0761011 -0.770221 0.220851
0.572792 0.216066 0.600101
0.000817013 0.549003 -0.0171686
-0.0602077 -0.430211 0.179951
-0.0747011 -0.989688 0.194572
-0.0515416 -0.76772 0.105825
-0.246874 -0.016396 -0.116885
0.411096 -0.245682 0.336448
0.192062 -0.645115 0.102063
-0.188688 -0.120093 -0.0522285
-0.267531 0.476672 -0.473523
-0.0380144 -0.593608 0.104582
0.38912 -0.559379 0.17982
-0.0437635 -0.965011 0.100292
-0.0464901 -0.277779 0.163906
-0.0320845 -0.498301 0.208012
0.192978 -0.377755 0.303424
0.126594 0.25617 -0.0878275
0.683755 -0.0358467 0.301725
-0.471376 -0.356909 0.160787
0.0163074 -0.921357 0.205329
-0.0232514 -0.985272 0.235081
-0.106322 -0.0163371 0.0252866
-0.518336 -0.131869 -0.337533
0.236545 -0.419104 0.291213
0.0283504 -0.974739 0.15166
0.158431 -0.41148 0.295579
0.0234357 -0.743571 0.218714
-0.540552 -0.108296 -0.374077
-0.0951312 -0.722723 0.216785
0.23397 -0.408976 0.28612
-0.596013 -0.20288 0.23323
-0.0897136 -0.472227 0.0771253
0.0613779 -0.653205 0.188335
-0.0510389 -0.552997 0.0855115
0.511808 -0.175619 0.317104
-0.0984408 -0.185518 -0.606539
-0.217355 -0.587085 0.156372
0.0628432 0.138326 -0.0505085
-0.323675 0.573963 0.0935901
-0.212297 -0.0867843 -0.0759773
-0.0494717 -0.970861 0.225892
0.314669 -0.315243 0.324264
-0.00283373 -0.178937 0.189207
-0.51204 -0.360355 0.166271
0.131017 -0.492131 0.316728
-0.360856 0.286171 0.362379
0.0710277 -0.534008 0.273976
0.0454059 -0.898331 0.129421
0.414304 -0.533275 0.106055
-0.0818256 0.395267 0.142346
0.0457179 -0.672984 0.121212
0.0973603 0.0399691 -0.279227
0.0496357 -0.723485 0.122857
0.769528 0.420501 0.734093
0.6568 -0.458525 0.147955
-0.0242909 0.690624 -0.0937792
-0.507131 -0.124229 -0.299549
-0.217642 -0.328837 0.0909109
-0.259158 0.534099 -0.639117
-0.249249 -0.0153883 -0.519909
-0.116691 -0.50432 0.0612429
-0.361192 -0.21157 -0.231012
-0.126851 -0.587184 0.179841
0.538688 -0.492896 0.181231
-0.460688 0.581637 0.505845
-0.258858 -0.179053 -0.325781
0.0964437 0.00437997 -0.28404
0.212934 0.292779 -0.366693
-0.0878965 0.014692 0.232808
-0.000403925 -0.869197 0.21995
-0.167679 -0.284693 -0.166153
0.0806784 0.0149818 -0.225078
-0.097052 0.572544 -0.13107
-0.235022 0.44208 -0.274824
-0.528173 -0.108804 -0.369203
-0.472541 -0.3344 0.219502
-0.101582 0.635661 -0.332296
0.11378 0.230473 -0.0895757
0.649259 -0.431552 0.211326
-0.2974 0.393243 -0.336456
-0.282408 0.20402 0.345171
0.733309 -0.395864 0.180139
-0.663587 -0.0846736 -0.345947
0.108493 -0.551573 0.217224
-0.0668515 -0.283797 0.0343688
-0.278181 0.15672 -0.359605
-0.206063 -0.335483 -0.155394
0.588208 -0.448245 0.179843
-0.0766856 -0.768085 0.1832
0.143679 0.3914 0.152994
0.373515 0.800152 0.123603
-0.0319853 -0.415051 0.143949
-0.146948 -0.246706 -0.358875
0.012985 -0.0878339 0.13973
0.147221 0.402221 -0.14467
0.0125444 -0.809237 0.130766
0.274259 0.642883 -0.189232
0.136368 0.368965 0.16655
0.0104555 -0.295117 0.0659819
-0.618467 -0.0762784 -0.43676
0.0376437 -0.974536 0.179119
-0.381152 0.307672 0.389285
-0.304568 0.529763 0.0838019
0.0860051 -0.594096 0.2742
0.260594 -0.0866803 0.312645
-0.0755832 -0.653477 0.177779
0.749731 -0.356344 0.194947
-0.0459725 -0.919275 0.0910891
0.148901 -0.660469 0.0861555
-0.47264 -0.28536 0.162093
0.0519293 -0.434712 0.162798
-0.0782123 0.389875 0.0394317
-0.577328 -0.260045 0.213265
0.135851 0.267859 -0.102388
-0.0268997 -0.130414 0.184108
-0.18611 0.257666 -0.151122
0.262169 -0.0886299 0.330776
0.434632 -0.561976 0.134958
-0.409323 -0.133692 0.069372
-0.0099296 0.452936 -0.169531
0.257334 -0.0888293 0.286813
-0.318848 0.264389 0.0476392
-0.252961 0.187223 -0.408539
-0.494453 0.366957 0.0198375
0.241132 -0.101115 0.288029
-0.0191509 -0.377304 0.213955
0.340995 -0.542859 0.0899872
0.191414 0.187953 -0.350936
-0.00765229 0.458837 0.0554696
0.356021 0.0112059 0.361453
-0.366035 0.286213 0.0268875
-0.260845 0.483717 -0.495136
-0.0712397 -0.60568 0.207322
0.600443 -0.0895096 0.332048
-0.12382 0.194273 -0.155764
0.0511661 0.03844 -0.239479
-0.297901 0.403939 -0.313565
-0.0610125 -0.340312 0.017291
0.446736 0.0907355 0.514304
0.691259 0.318827 0.637773
0.0540595 -0.624229 0.24938
0.0120061 -0.551075 0.222705
0.389168 0.781744 0.123833
-0.071996 0.448904 0.162436
0.212786 -0.616301 0.171949
-0.727155 -0.14571 0.171659
-0.301128 0.230089 0.341453
0.802136 -0.326987 0.149841
-0.0248492 0.608256 -0.0401637
-0.0983019 -0.86064 0.19334
0.115609 0.267427 -0.0959365
0.204433 -0.0920656 0.339536
-0.545536 0.0495443 0.203573
0.007338 -0.956301 0.111435
-0.0653779 -0.89684 0.0991088
-0.204774 -0.398632 -0.073344
-0.01485 0.83604 -0.174871
0.00333616 -0.0390904 -0.0161172
0.103371 0.100693 -0.278971
-0.065284 -0.305659 0.0413141
-0.341928 0.278656 0.0326712
-0.431357 0.542547 0.490299
0.297608 0.306133 -0.428859
-0.397869 0.408077 0.428491
0.067088 0.0364165 -0.297987
-0.152237 0.0589797 0.2516
-0.0156519 -0.836597 0.0981731
-0.197767 0.413251 0.0637197
-0.157133 0.0754219 0.276731
0.0567259 -0.569245 0.276227
0.209033 -0.665304 0.164613
-0.0279664 -0.906789 0.0859072
-0.0908616 0.579472 -0.314283
-0.289667 0.514571 0.0651712
0.26812 -0.0168092 0.360541
0.229323 -0.647883 0.0975845
0.462299 0.144449 0.538304
-0.132829 0.648928 0.281701
0.354787 0.0217986 0.466365
0.0274395 -0.719349 0.124166
0.0139324 -0.901115 0.103148
-0.110243 -0.869115 0.181295
0.649379 -0.0613624 0.424043
0.000296749 -0.223222 0.201124
-0.0963181 -0.555933 0.157942
-0.00811245 -0.658192 0.240043
0.0393909 -0.643853 0.159557
-0.182722 0.846853 0.398739
0.0417421 -0.89736 0.149646
-0.214302 -0.641843 0.198298
-0.254843 0.173689 -0.393768
-0.0348323 -0.205064 0.0205158
0.0275693 -1.01155 0.214175
-0.255869 0.196673 -0.404976
-0.646256 0.095752 0.261649
-0.367869 0.336936 0.411947
-0.560789 0.028376 0.184019
-0.03658 -0.348293 0.0399381
0.0329784 0.0279563 -0.0232874
-0.187608 -0.645819 0.20483
-0.223295 0.440619 -0.281219
-0.271973 0.481512 0.0688837
-0.260997 -0.336549 0.108601
-0.111984 0.115016 -0.0684371
-0.271067 -0.124753 -0.359832
-0.103306 -0.962205 0.177109
0.0278699 -0.581307 0.145838
-0.165941 -0.199978 -0.423405
-0.0139946 0.623899 -0.0759085
-0.581197 0.389899 0.0257141
-0.348472 -0.450333 0.159959
-0.0712925 -0.861184 0.232373
0.624197 -0.107433 0.348899
0.533739 0.177325 0.543648
-0.656397 -0.172497 0.225127
-0.150009 0.194111 -0.146572
0.239387 0.301371 -0.363256
-0.0735299 -0.634792 0.145074
0.153482 0.373547 -0.13764
0.395667 -0.598861 0.144473
0.73328 -0.4276 0.17219
-0.500544 0.231689 -0.234713
-0.0172294 -0.458811 0.120629
0.0902005 -0.67384 0.102319
0.274501 0.687163 0.164712
0.0348907 -0.864144 0.179401
-0.008138 -0.463323 0.147309
-0.110876 0.0732067 0.137736
-0.0457125 -0.711016 0.101641
0.0265532 -0.675219 0.19051
0.628493 -0.0755621 0.430155
0.0161374 0.341019 -0.0864053
0.198752 -0.486613 0.291725
0.217927 -0.648739 0.160277
-0.366616 -0.411389 0.165732
0.242427 -0.0459971 0.375179
-0.109033 0.270387 0.104099
0.722237 0.377568 0.673619
-0.0307277 0.0375331 0.162338
-0.0285856 -0.520528 0.226149
0.032936 -0.423744 0.17459
0.0110936 -0.954224 0.212701
0.0201942 -0.116898 -0.149506
-0.258965 -0.269675 -0.127144
0.377365 -0.0216252 0.374059
-0.204774 0.131039 0.262866
-0.268952 0.0534 -0.230647
-0.5798 0.393688 0.0303576
-0.45028 0.567024 0.505485
-0.0443635 -0.475957 0.187058
0.456179 -0.498667 0.123678
0.00664549 0.571419 -0.0487232
0.323485 -0.579173 0.147078
0.0830603 -0.755067 0.170802
-0.712408 -0.115622 0.177965
0.7884 0.369069 0.653621
-0.2824 0.658387 -0.332416
-0.0820883 -0.659296 0.197869
0.0848552 -0.00706189 -0.198346
0.0901235 0.123571 -0.292056
-0.720493 0.393341 0.0468299
-0.02141 -0.415083 0.0863928
-0.604936 -0.188757 0.179612
-0.0189201 -0.0965859 0.177937
0.220438 0.491459 0.175038
-0.389256 -0.113564 0.119789
0.110145 0.687328 -0.101575
-0.525563 -0.125055 -0.301576
-0.411029 0.120163 -0.215561
0.18457 -0.128697 0.340131
0.633797 0.299605 0.654928
-0.203517 -0.289717 -0.213298
-0.22485 0.417669 -0.355325
0.0261825 -0.819053 0.152896
-0.24865 0.513437 -0.571744
-0.454853 -0.364837 0.212977
-0.0978784 -0.344955 0.0187243
-0.231254 0.429064 0.0758184
-0.57512 -0.171989 0.173761
-0.141095 -0.520315 0.0942045
-0.0848736 -0.870789 0.225038
-0.338843 0.558235 0.0920389
-0.608328 -0.1751 0.188493
0.263565 -0.0326995 0.365125
0.244742 -0.0656304 0.300053
0.4648 -0.498621 0.174832
0.186332 0.244001 -0.397901
-0.279533 0.0398128 -0.2143
-0.0129182 -0.12555 0.147405
-0.0758413 0.441581 0.00856504
0.826064 -0.357461 0.172234
-0.00512491 -0.813728 0.1125
-0.351715 -0.210095 0.0360051
-0.0281597 -0.952421 0.092084
0.283635 -0.326661 0.257417
-0.0949251 0.581691 -0.141877
-0.0413933 -0.194117 0.149084
-0.00165663 -0.407851 0.103622
0.427581 -0.240761 0.286195
-0.00459928 -0.503664 0.107591
-0.0371088 -0.572203 0.225385
0.334077 -0.333531 0.300781
0.679349 0.303749 0.621171
-0.429101 0.515083 0.458069
0.183593 -0.45092 0.324456
0.22342 0.482163 0.171087
0.0516851 0.0349515 -0.229743
-0.0830997 -0.958091 0.201371
-0.205671 -0.278789 -0.140782
-0.418331 -0.160524 0.0817448
-0.272256 0.106158 -0.289149
-0.311461 0.421781 -0.343763
-0.208902 -0.113042 -0.0923725
-0.40792 0.443211 0.443499
-0.431909 0.339203 0.0316341
0.556683 -0.119171 0.329499
0.00401819 -0.744389 0.121426
0.332403 -0.561501 0.0923088
-0.0712691 0.549264 -0.095392
0.7262 0.356952 0.694395
0.297323 0.281085 -0.3956
-0.192378 -0.368027 0.0391051
0.140839 0.355627 -0.111699
-0.116539 0.586352 0.24857
0.100589 0.235825 -0.0799675
0.662968 -0.052788 0.371659
-0.230038 -0.355936 -0.0345123
-0.122203 -0.235965 -0.439005
-0.563243 -0.192862 0.219445
0.0214191 -0.351819 0.0685864
0.00807381 -0.598885 0.254248
-0.456568 -0.0957224 0.109455
-0.641963 -0.174376 0.155638
0.232735 0.559861 -0.129586
-0.224408 0.158148 0.276765
-0.0479749 -0.238496 -0.00658187
-0.702096 -0.117519 0.153965
-0.438555 -0.107891 0.0793899
0.137061 0.323936 -0.119055
-0.0317584 -0.710787 0.22542
0.594464 -0.429008 0.143774
0.712104 0.378309 0.680621
0.739547 -0.0259598 0.30172
0.137415 0.378995 -0.129754
-0.134769 0.194787 -0.125535
0.831581 0.0588909 0.296261
-0.00876763 -0.897925 0.103584
-0.24737 -0.0216703 -0.472301
-0.0231071 -0.865517 0.235614
0.204181 0.529923 -0.116087
-0.073488 -0.813811 0.138176
-0.0203183 -0.709936 0.120174
-0.207409 0.892141 0.434355
0.727592 0.00211814 0.320499
-0.278981 0.497243 0.070372
0.500584 -0.501776 0.160111
0.00443269 -0.343499 0.162609
-0.0288056 -0.355283 0.111722
-0.0841088 -0.531765 0.0885981
-0.252867 -0.322971 0.0838992
-0.170669 -0.307115 -0.103467
-0.260186 0.349227 -0.272072
-0.0590229 0.163391 0.125575
-0.260278 -0.322984 0.0760211
-0.0730472 -0.836365 0.138992
-0.362549 0.360069 0.417261
-0.0368203 -0.402885 0.0940491
-0.173913 -0.390045 -0.0471843
-0.397285 0.154284 -0.206699
0.0203472 -0.897307 0.175896
0.00327307 -0.262937 0.0290341
0.282637 0.524904 0.172185
0.5128 -0.186086 0.331171
-0.172534 -0.219869 -0.377171
0.500072 -0.165077 0.353243
0.55992 -0.137397 0.346208
-0.581675 0.806624 0.130986
-0.106283 0.477955 0.196406
-0.129908 0.10395 -0.0735131
-0.105097 0.520555 0.226241
-0.701384 0.383173 0.0293613
-0.07484 -0.801691 0.155841
0.0172581 -0.18233 -0.0869555
-0.19572 -0.625552 0.172548
0.176109 -0.465021 0.268728
-0.398733 -0.190826 -0.220755
0.769125 0.0199757 0.307587
-0.508379 -0.298152 0.202449
-0.345995 -0.486144 0.175686
0.167423 -0.490219 0.295413
-0.0493731 -0.923845 0.214478
0.0392395 -0.755624 0.173568
0.0652205 -0.676264 0.143315
0.609797 -0.0900339 0.340899
-0.385523 -0.111065 0.0841467
0.35528 0.776491 0.140371
-0.0750027 -0.556856 0.0959968
0.0123364 -0.041672 -0.0271232
-0.329123 0.53432 0.0854864
-0.54528 0.0450232 0.159672
0.345587 -0.589525 0.145237
-0.488584 0.339205 0.0225199
-0.226494 0.421429 -0.359011
-0.196935 -0.0658971 -0.076224
-0.10686 0.54096 0.235847
0.537811 0.484355 0.163431
0.396179 0.659611 0.164645
-0.219395 -0.554168 0.20543
0.0171764 -0.379565 0.162082
-0.102563 0.314557 0.0674643
0.0263822 -0.398584 0.204773
0.00798856 -0.126064 0.15218
0.14653 0.348805 -0.142036
-0.260959 0.172045 -0.385163
0.0182006 -0.409304 0.214525
-0.0018073 -0.54616 0.141201
-0.134865 0.599373 -0.397741
0.0368517 0.592819 -0.0622656
-0.128718 0.0658939 -0.0266885
0.184899 0.18907 -0.340496
-0.239851 0.462744 -0.411272
-0.0527843 -0.129101 0.11342
-0.010276 -0.432635 0.220397
0.753669 -0.369963 0.160687
-0.0199107 0.0498091 0.139999
-0.0352037 -0.160344 0.0184519
-0.637989 -0.174265 0.209863
-0.310264 0.749581 -0.406784
0.202869 -0.452704 0.299555
-0.00314061 -0.517203 0.218723
0.0256208 -0.3676 0.175994
0.0856043 0.645123 -0.0931803
-0.352283 -0.207748 0.066428
-0.181799 0.293099 -0.174046
0.169581 -0.479563 0.302493
-0.613624 -0.0936035 -0.347376
0.20947 -0.389803 0.311317
-0.435304 -0.408696 0.182935
0.342403 0.770371 0.134276
-0.276968 0.0162639 -0.146845
0.44832 -0.544947 0.145771
-0.0782699 -0.399915 0.0776693
0.6784 0.00543693 0.520291
-0.0499813 -0.553213 0.122782
0.115176 0.284872 -0.100457
0.0470397 0.245251 0.15953
-0.19782 -0.366037 -0.0694309
-0.0314616 -0.0861139 0.169141
-0.0771912 -0.903149 0.13531
-0.023296 0.605192 -0.0387547
-0.0191061 -0.651667 0.211662
-0.106452 0.0921155 0.112077
-0.2844 0.0139255 -0.147761
-0.0260069 -0.911845 0.215925
-0.0752909 0.114251 0.0191315
0.344829 -0.307005 0.301091
-0.462291 0.589651 0.509456
-0.380101 -0.197999 -0.236826
-0.432032 -0.0499069 0.103535
-0.139135 -0.198967 -0.405493
0.00463397 -0.19335 0.145401
0.621696 0.266861 0.596965
-0.403661 -0.417939 0.169116
-0.168785 -0.332496 -0.0935176
-0.201783 -0.0978672 -0.0549776
0.682376 -0.00644763 0.506056
0.310189 0.553469 0.168498
0.00629867 0.347635 -0.0756064
-0.765648 0.388968 0.0463299
-0.460291 0.324667 0.0253114
0.0958675 -0.567149 0.25218
0.040752 -0.576925 0.25267
0.0638981 -0.59152 0.209149
-0.0813741 -0.757915 0.162333
0.709533 -0.0221771 0.313408
-0.0965061 -0.533104 0.0852003
-0.173246 -0.119651 -0.0344181
0.160628 -0.458765 0.308763
0.0379152 -0.6112 0.238155
-0.0205878 -0.69832 0.121036
-0.0703037 -0.891944 0.126205
-0.44016 -0.0683 0.0826368
-0.346237 0.329173 0.400456
0.0451597 -0.555192 0.250074
-0.299861 -0.259513 0.0793549
-0.421035 -0.0728579 0.0763288
-0.0999152 0.494437 0.213562
-0.0125635 0.639003 -0.0564541
0.221095 0.497008 0.16854
-0.0339803 -0.498427 0.123948
-0.119583 -0.18775 -0.511848
0.0103837 -0.435691 0.155698
0.00381605 -0.88372 0.121883
-0.139506 0.139348 0.091584
-0.134807 -0.671971 0.206821
0.0218278 -0.576981 0.22517
-0.0121508 -0.0781131 0.13547
-0.00611387 -0.198458 0.192281
-0.00658923 -0.871765 0.115688
0.301717 0.550571 0.162913
-0.371896 0.370571 0.423013
-0.570315 0.0575149 0.176542
0.403016 -0.555909 0.157443
-0.239678 -0.110158 -0.387944
-0.114236 -0.460779 0.0280115
-0.302405 -0.509365 0.170129
-0.0183677 -0.802475 0.113918
-0.118626 0.616269 0.261103
-0.00596064 -0.816933 0.208688
-0.242517 0.41964 -0.35176
-0.140051 0.136795 -0.0617493
-0.0581027 -0.88452 0.209972
-0.0490651 -0.498907 0.131575
0.366952 0.780331 0.134377
-0.316464 0.412896 -0.364237
-0.0799557 -0.690723 0.148743
0.763381 -0.375379 0.173679
0.0592501 0.113159 -0.0271923
0.333307 0.702267 -0.222295
0.584483 -0.0981123 0.369824
