-0.260301 0.280552 0.153376
-0.263616 0.270184 0.144103
-0.263038 0.277331 0.152065
-0.266512 0.272678 0.15036
-0.268298 0.270191 0.149478
-0.268327 0.263868 0.136262
-0.270229 0.267027 0.140907
-0.271354 0.26317 0.146453
-0.268892 0.256121 0.148222
-0.271152 0.256268 0.143824
-0.267123 0.276825 0.158004
-0.268601 0.269808 0.156128
-0.266983 0.276408 0.16561
-0.268196 0.269353 0.164621
0.0939284 -0.0592547 0.0102586
-0.26876 0.262313 0.163887
-0.26873 0.262829 0.156475
-0.267963 0.255301 0.163692
-0.267698 0.255786 0.155182
0.0877095 -0.0465897 0.0314775
-0.261596 0.24138 0.165185
-0.263603 0.241626 0.159197
-0.264629 0.246731 0.164381
-0.260903 0.227709 0.157748
-0.267097 0.249131 0.148421
-0.27034 0.249339 0.142143
-0.266034 0.242068 0.149361
-0.269824 0.242357 0.14121
-0.271165 0.228743 0.14534
-0.266372 0.248726 0.156258
-0.266687 0.248945 0.15208
-0.271395 0.22791 0.145966
-0.313344 -0.0430568 -0.217011
-0.311135 -0.04259 -0.22369
-0.30759 -0.0561522 -0.230863
-0.308463 -0.049142 -0.230697
-0.309892 -0.0421437 -0.23075
0.0907981 -0.0531322 0.0246358
-0.251162 -0.380142 -0.198369
0.0909929 -0.0463123 0.0290391
0.0924204 -0.0490381 0.0255713
-0.251779 -0.387334 -0.19642
-0.259638 -0.380513 -0.198285
-0.259342 -0.387554 -0.198342
-0.252112 -0.390473 -0.195407
-0.258533 -0.394248 -0.198113
-0.242864 0.38728 0.221059
-0.242693 0.387455 0.218043
-0.243619 0.384386 0.220552
-0.244259 0.38683 0.228059
-0.246337 0.380584 0.226788
-0.24685 0.386355 0.234588
-0.248919 0.380148 0.233323
-0.249916 0.38587 0.240928
-0.251579 0.380026 0.23985
0.0936724 -0.0460429 0.026281
0.0883561 -0.0397206 0.0353604
0.0895699 -0.0430463 0.0324671
-0.252565 -0.394557 -0.19404
0.0918041 -0.0394736 0.0336054
-0.253572 -0.401821 -0.191099
0.0957645 -0.0347836 0.0355035
-0.258739 -0.401706 -0.197189
-0.266023 -0.381104 -0.192617
-0.265709 -0.388126 -0.193003
-0.304392 -0.142893 -0.19138
-0.304491 -0.135834 -0.191509
-0.2967 -0.142543 -0.191709
-0.297086 -0.135536 -0.191108
-0.304437 -0.128745 -0.19203
-0.304224 -0.121628 -0.192953
-0.297311 -0.128499 -0.190918
-0.297029 -0.121369 -0.192015
-0.292571 -0.142276 -0.193299
-0.29242 -0.135244 -0.192729
-0.294032 -0.121221 -0.192345
-0.292038 -0.128207 -0.192067
-0.286414 -0.141771 -0.197593
-0.286797 -0.134761 -0.197042
-0.281262 -0.141195 -0.203936
-0.282106 -0.134184 -0.203759
-0.288302 -0.127905 -0.194592
-0.28849 -0.120861 -0.194497
-0.285848 -0.127656 -0.197174
-0.286097 -0.120632 -0.196763
-0.282396 -0.127162 -0.203363
-0.282818 -0.120143 -0.203019
0.0979698 -0.0381187 0.0285475
-0.244983 0.36321 0.271551
-0.246858 0.363313 0.268228
-0.248028 0.369883 0.270837
-0.252755 0.385389 0.247359
-0.254064 0.379473 0.246413
-0.254823 0.384926 0.254093
-0.256164 0.377658 0.252763
-0.254534 0.384136 0.268529
-0.255528 0.38449 0.261366
-0.25655 0.37744 0.260453
-0.253427 0.377147 0.268155
-0.257563 0.363475 0.256988
-0.257426 0.370578 0.256259
-0.247235 0.351539 0.269817
-0.248464 0.349078 0.269155
-0.258914 0.349069 0.261185
-0.240083 0.376582 0.288695
-0.249421 0.376996 0.27398
-0.24048 0.378504 0.289596
0.0949607 -0.0522226 0.0187579
-0.245162 0.380622 0.21209
-0.246136 0.380934 0.205723
-0.243489 0.387686 0.213261
-0.249247 0.391283 0.196093
-0.247511 0.381412 0.196059
-0.246811 0.372539 0.210447
-0.247064 0.373973 0.203277
-0.247619 0.374381 0.195506
-0.248207 0.36692 0.202314
-0.248596 0.367268 0.195741
-0.248275 0.368808 0.194843
-0.247921 0.366507 0.209979
-0.303925 -0.114494 -0.194093
-0.249182 0.363805 0.194123
-0.256764 0.367899 0.178053
-0.249364 0.359867 0.201348
-0.249401 0.360042 0.198167
-0.250145 0.352756 0.200468
-0.249584 0.359442 0.208812
-0.251327 0.352377 0.207613
-0.252602 0.345804 0.206634
-0.250515 0.353234 0.192831
-0.257443 0.353618 0.180539
-0.250212 0.339659 0.183364
-0.250248 0.346211 0.192426
-0.250358 0.33918 0.191872
-0.25073 0.34578 0.199787
-0.251992 0.338725 0.198778
-0.254544 0.338251 0.205322
-0.244784 0.38021 0.219791
-0.247083 0.373133 0.218372
-0.249107 0.365706 0.216475
-0.248865 0.372675 0.22522
-0.251438 0.364278 0.223597
-0.251202 0.372205 0.231849
-0.253064 0.365137 0.230603
-0.253584 0.371735 0.238459
-0.255262 0.36467 0.237285
-0.251224 0.358987 0.215715
-0.253364 0.351913 0.214361
-0.253178 0.358526 0.222495
-0.255287 0.351452 0.221152
-0.255126 0.345144 0.213176
-0.257276 0.344253 0.219054
-0.254597 0.359161 0.229565
-0.256927 0.358 0.236146
-0.257059 0.350995 0.228004
-0.259443 0.350524 0.234614
-0.259956 0.343443 0.226316
-0.262641 0.343226 0.232826
-0.257289 0.337772 0.211789
-0.259568 0.337304 0.218441
-0.261837 0.336835 0.225096
-0.264215 0.336365 0.231708
-0.291959 0.351522 0.191378
-0.285784 0.351269 0.193979
-0.290021 0.358582 0.192843
-0.292299 0.358538 0.191861
-0.284702 0.344715 0.192537
-0.282692 0.34468 0.194716
-0.284289 0.337713 0.191869
-0.28243 0.337657 0.194309
-0.291407 0.344546 0.190355
-0.290621 0.337613 0.188737
-0.28476 0.371947 0.210387
-0.284412 0.371918 0.211182
-0.285111 0.374847 0.211119
-0.28359 0.365085 0.207793
-0.282728 0.364925 0.211337
-0.28267 0.385421 0.223536
-0.280375 0.385221 0.228899
-0.282004 0.37855 0.220697
-0.279673 0.378208 0.228666
-0.28614 0.385849 0.213131
-0.284065 0.385563 0.219891
-0.28548 0.378892 0.211835
-0.280936 0.37007 0.219992
-0.280614 0.371159 0.227784
0.0978734 -0.0521217 0.0119306
-0.283374 0.366334 0.226348
-0.281642 0.364529 0.219316
-0.285279 0.364032 0.225431
-0.303641 -0.106966 -0.195057
-0.282169 0.35827 0.204563
-0.281659 0.35792 0.211248
-0.281345 0.352467 0.20323
-0.281948 0.350885 0.210623
-0.280848 0.34312 0.202588
-0.282572 0.344038 0.20635
-0.283882 0.34641 0.209538
-0.284001 0.35745 0.217875
-0.285598 0.350558 0.213661
-0.286771 0.35331 0.216484
-0.288367 0.357125 0.220318
-0.289644 0.359819 0.223408
-0.294395 0.336916 0.198335
0.0976457 -0.0455385 0.0202992
-0.249522 0.332589 0.184141
-0.250788 0.326625 0.18321
-0.251922 0.332118 0.190744
-0.253091 0.328661 0.190034
-0.254442 0.325036 0.189239
-0.253979 0.318436 0.18136
-0.256062 0.311843 0.178691
-0.257834 0.317934 0.187389
-0.259068 0.315354 0.186716
-0.254343 0.331646 0.197339
-0.255668 0.32834 0.196578
-0.256949 0.331171 0.203862
-0.258235 0.327749 0.203108
-0.257244 0.324556 0.195683
-0.259614 0.324085 0.202299
-0.261147 0.316343 0.193552
0.100918 -0.0450484 0.01404
-0.262568 0.316994 0.200622
-0.264149 0.313001 0.19971
-0.299531 -0.114309 -0.194006
-0.296658 -0.117958 -0.193141
-0.256816 0.308407 0.232589
-0.259861 0.308564 0.227428
-0.261735 0.320477 0.231531
-0.259392 0.330699 0.210448
-0.261144 0.324905 0.209338
-0.261186 0.33024 0.217292
-0.262809 0.322233 0.215398
-0.263979 0.316544 0.207616
-0.266071 0.309523 0.20535
-0.264327 0.316117 0.21503
-0.265951 0.309053 0.213878
-0.262611 0.32979 0.22428
-0.262661 0.32276 0.22375
-0.263798 0.329345 0.231363
-0.261899 0.322357 0.231602
-0.267935 0.294954 0.212074
-0.268106 0.295023 0.210697
-0.268411 0.2917 0.211651
-0.261362 0.310831 0.185485
-0.263878 0.310357 0.192043
-0.26529 0.309907 0.199036
-0.284731 0.334395 0.193167
-0.290092 0.330632 0.187776
-0.288498 0.330499 0.191402
-0.290971 0.327178 0.190188
-0.261904 0.303061 0.177126
0.101111 -0.0384244 0.0221313
-0.264904 0.303256 0.183541
-0.264283 0.297131 0.175759
-0.26687 0.296657 0.182289
-0.265941 0.290067 0.174594
-0.266855 0.283019 0.173722
-0.268079 0.289602 0.181301
-0.268812 0.282558 0.180501
-0.266493 0.303273 0.190499
-0.267518 0.299315 0.189809
-0.267587 0.30283 0.197619
-0.269696 0.293236 0.196093
-0.268866 0.295952 0.193404
-0.268224 0.296208 0.189306
-0.269574 0.28915 0.188262
-0.270569 0.2821 0.187359
-0.271499 0.28166 0.194543
-0.268453 0.280886 0.210848
-0.255741 0.371269 0.245158
-0.257482 0.364203 0.243961
-0.257289 0.370815 0.252098
-0.25873 0.363756 0.251019
-0.279725 0.38485 0.236086
-0.281404 0.384585 0.239544
-0.282939 0.387933 0.243251
-0.28013 0.382911 0.23641
-0.259688 0.357217 0.243285
-0.261526 0.355655 0.249331
0.103885 -0.0383329 0.0156947
-0.26236 0.350042 0.241013
-0.263745 0.349592 0.248017
-0.267376 0.335458 0.245562
-0.266956 0.335566 0.243937
-0.265274 0.342405 0.239312
-0.265864 0.33591 0.238609
-0.26767 0.275514 0.172459
-0.269361 0.275517 0.179774
-0.269385 0.268488 0.179254
-0.26892 0.268698 0.175841
-0.268163 0.261486 0.179227
-0.268513 0.261696 0.175188
-0.264201 0.254541 0.18028
-0.267003 0.254896 0.171733
-0.2699 0.267637 0.194154
-0.268332 0.268931 0.172118
-0.253874 0.241025 0.177569
-0.256085 0.246388 0.182881
-0.304866 -0.0932733 -0.195721
-0.304403 -0.100329 -0.195382
-0.29618 -0.114134 -0.194556
-0.295555 -0.10694 -0.196528
-0.294746 -0.0999828 -0.199271
-0.298629 -0.0927842 -0.19967
-0.29177 -0.0981234 -0.204942
-0.29531 -0.0922937 -0.20591
-0.287499 -0.113969 -0.197756
-0.29197 -0.1067 -0.198061
-0.287464 -0.106184 -0.203833
-0.284816 -0.112099 -0.20377
-0.288075 -0.139881 -0.232861
-0.288817 -0.13294 -0.231355
-0.28423 -0.133162 -0.223792
-0.283703 -0.140025 -0.226884
-0.286624 -0.133021 -0.228198
-0.288738 -0.125994 -0.22929
-0.289638 -0.119005 -0.228771
-0.284503 -0.126298 -0.220538
-0.286066 -0.118064 -0.219503
-0.280371 -0.140337 -0.218687
-0.279764 -0.140485 -0.215535
-0.28229 -0.133349 -0.218934
-0.280909 -0.133687 -0.211769
-0.279534 -0.140739 -0.210804
-0.28189 -0.12653 -0.210748
-0.282913 -0.119764 -0.209889
-0.300982 -0.123159 -0.0359996
-0.287403 -0.112416 -0.218622
-0.289953 -0.105397 -0.219919
-0.288178 -0.105706 -0.212981
-0.290215 -0.100366 -0.211311
-0.294546 -0.0918573 -0.21316
-0.292072 -0.0984132 -0.220244
-0.294436 -0.0919681 -0.219865
-0.299602 -0.130158 -0.0359653
-0.290603 -0.113102 -0.228204
-0.291998 -0.105082 -0.227183
-0.293785 -0.0980299 -0.228473
-0.29265 -0.0982566 -0.223519
-0.295824 -0.0910446 -0.228768
-0.285072 -0.112742 -0.21095
-0.26293 0.39548 0.0579964
-0.262206 0.388535 0.0565356
-0.270849 0.394901 0.0591476
-0.269698 0.388221 0.0563562
-0.261911 0.374433 0.0565485
-0.270599 0.381081 0.0571539
-0.270121 0.377626 0.0579979
-0.267478 0.374068 0.0587792
-0.27123 0.373782 0.0610139
-0.274259 0.380113 0.0717141
-0.27424 0.380304 0.0682826
-0.275662 0.385895 0.0715824
-0.274454 0.37308 0.0711271
-0.273764 0.373314 0.0674535
-0.263043 0.36609 0.0595462
-0.262547 0.360045 0.0609776
-0.272323 0.366558 0.0631656
-0.271909 0.361204 0.0640821
-0.259697 0.353148 0.0603211
-0.258943 0.346135 0.0601083
-0.264052 0.352803 0.0631373
-0.265171 0.345637 0.0642218
-0.267978 0.352552 0.064602
-0.27486 0.367339 0.0705506
-0.276707 0.358554 0.0767675
-0.275936 0.358757 0.0737405
-0.276458 0.365588 0.0773764
-0.275307 0.365951 0.0717579
-0.273005 0.35222 0.0666692
-0.273913 0.345035 0.0682483
-0.276978 0.356402 0.076505
-0.302282 -0.123606 -0.0289616
-0.273655 0.387994 0.0573602
-0.279698 0.394522 0.06217
-0.280068 0.396205 0.063016
-0.278717 0.387625 0.0600551
-0.280653 0.394454 0.0626586
-0.280448 0.38743 0.0622292
-0.275973 0.380496 0.0634862
-0.279573 0.384757 0.0623793
-0.273292 0.373524 0.0640344
-0.300827 -0.131927 -0.0289934
-0.275132 0.359009 0.0698383
-0.27518 0.351979 0.069309
-0.277703 0.351505 0.0758639
-0.278273 0.344464 0.0751288
-0.253946 0.330925 0.0837146
-0.251313 0.345038 0.0857753
-0.256414 0.316815 0.0817195
-0.258552 0.339115 0.0597519
-0.258115 0.332096 0.0594145
-0.264588 0.338594 0.064437
-0.264217 0.33223 0.0648754
-0.257668 0.325077 0.0590805
-0.257717 0.318047 0.0585506
-0.262541 0.324553 0.0647069
-0.261744 0.317541 0.0645116
-0.27359 0.337295 0.0687851
-0.273257 0.330914 0.0688885
-0.264634 0.317304 0.0665246
-0.273544 0.323807 0.0695644
-0.270606 0.316933 0.0685629
-0.273613 0.316716 0.0701241
-0.260494 0.302682 0.0718906
-0.261838 0.309324 0.0790419
-0.257162 0.289302 0.0682811
-0.257584 0.296302 0.068973
-0.259114 0.310989 0.0574884
-0.260502 0.306696 0.0566306
-0.261909 0.310509 0.063936
-0.262261 0.303473 0.0632869
-0.261758 0.303679 0.0599751
-0.261788 0.303903 0.0559218
-0.25871 0.289912 0.0561166
-0.258762 0.290076 0.0531225
-0.259913 0.293081 0.0558741
-0.260876 0.296474 0.0633232
-0.261446 0.296658 0.0595641
-0.258256 0.289501 0.0638475
-0.266822 0.301343 0.0537557
-0.266984 0.295928 0.054459
-0.264465 0.310257 0.0664739
-0.265604 0.304834 0.0696524
-0.268179 0.304453 0.0761934
-0.268762 0.309943 0.0687811
-0.273969 0.309572 0.0714094
-0.274815 0.306374 0.0737226
-0.263746 0.316399 0.0834919
-0.268764 0.286745 0.0977966
-0.27159 0.29375 0.104391
-0.277525 0.315994 0.0800678
-0.276726 0.286759 0.0987897
-0.278115 0.29305 0.101965
-0.283734 0.286534 0.0973776
-0.284671 0.292428 0.0994318
-0.277942 0.337443 0.0747485
-0.277823 0.330416 0.0742853
-0.278002 -0.384028 -0.149367
-0.27953 -0.383911 -0.152643
-0.27273 0.303792 0.0494131
-0.26985 0.303731 0.0527383
-0.273568 0.305818 0.0514271
-0.27497 0.303378 0.0551076
-0.280017 0.303666 0.0487043
-0.281507 0.30324 0.0525002
-0.271731 0.296898 0.0472579
-0.272982 0.292252 0.0506721
-0.274984 0.296298 0.0555252
-0.279726 0.297368 0.0483907
-0.275959 0.30937 0.0734905
-0.290483 0.286358 0.0953079
-0.291252 0.291658 0.096969
-0.294116 0.286218 0.0949938
-0.298449 -0.137226 -0.0348639
-0.299804 -0.13761 -0.0290038
-0.297094 -0.144123 -0.0366915
-0.298608 -0.144614 -0.0290416
-0.297677 -0.140761 -0.0359782
-0.324698 0.368277 0.11843
-0.3186 0.368781 0.114104
-0.324503 0.369886 0.119444
-0.310238 0.343041 0.123106
-0.322194 0.361572 0.114045
-0.324152 0.353202 0.117914
-0.323779 0.340934 0.117354
-0.313126 0.340363 0.121776
-0.3192 0.370509 0.144321
-0.318383 0.366686 0.151947
-0.322919 0.37194 0.150544
-0.3161 0.374716 0.136242
-0.320209 0.374516 0.136634
-0.320878 0.377653 0.129016
-0.323348 0.374838 0.135422
-0.31674 0.373545 0.137927
-0.32682 0.374449 0.126446
-0.31931 0.375375 0.121885
-0.329653 0.374211 0.133331
-0.334291 0.380574 0.143654
-0.329274 0.379639 0.148975
-0.335787 0.38724 0.146711
-0.325882 0.373983 0.141945
-0.332534 0.375808 0.139461
-0.310887 0.340286 0.124898
-0.299915 0.340644 0.126993
-0.279315 0.328936 0.11873
-0.276012 0.314135 0.114673
-0.276528 0.325987 0.135491
-0.280509 0.341617 0.124581
-0.278536 0.3411 0.135436
-0.281445 0.310818 0.132093
-0.278482 0.320015 0.133926
-0.295874 -0.150943 -0.0399958
-0.296018 -0.151167 -0.0360806
-0.283084 0.313899 0.113426
-0.290734 0.313614 0.113453
-0.29409 -0.157735 -0.0433811
-0.294678 -0.158168 -0.0360617
-0.294409 -0.156413 -0.0434114
-0.293375 0.327224 0.119597
-0.273412 0.300458 0.108828
-0.2735 0.299874 0.119259
-0.274753 0.306806 0.111881
-0.265812 0.286636 0.109496
-0.274227 0.28651 0.110193
-0.275399 0.293013 0.114259
-0.276846 0.296798 0.11772
-0.278233 0.299569 0.121082
-0.279573 0.30039 0.105264
-0.281262 0.307101 0.109177
-0.285898 0.300292 0.102114
-0.287815 0.30694 0.106611
-0.281375 0.290585 0.115487
-0.281972 0.285791 0.112123
-0.286003 0.285551 0.113301
-0.288443 0.298717 0.128461
-0.289887 0.283995 0.113095
-0.294997 0.29363 0.125514
-0.297506 -0.151619 -0.0291166
-0.282168 0.326545 0.140532
-0.287727 0.340285 0.14293
-0.288898 0.335785 0.146137
-0.284713 0.326071 0.147079
-0.282155 0.319517 0.140027
-0.282502 0.31248 0.13938
-0.283303 0.319072 0.147125
-0.281337 0.312016 0.147401
-0.292026 0.325335 0.154621
-0.282661 0.311638 0.154419
-0.292496 0.31817 0.156198
-0.285991 0.311223 0.159269
-0.292159 0.311154 0.155722
-0.291929 0.339975 0.14525
-0.298172 0.325269 0.151018
-0.305194 0.339199 0.14888
-0.303395 0.32079 0.146906
-0.297923 0.318237 0.150769
-0.29616 0.312119 0.148172
-0.302063 0.311464 0.142447
-0.296355 -0.158623 -0.0291733
-0.284466 0.30398 0.137575
-0.280746 0.303566 0.146838
-0.285545 0.298219 0.139671
-0.282432 0.298004 0.145938
-0.298622 -0.136746 -0.04364
-0.2871 0.294206 0.143826
-0.282289 0.304617 0.154056
-0.282414 -0.383622 -0.160085
-0.283409 0.30043 0.153312
-0.285054 0.304318 0.157267
-0.288848 0.297609 0.148067
-0.289971 0.300654 0.150747
-0.291121 0.304268 0.153465
-0.300799 0.307954 0.139435
-0.293832 0.30516 0.141972
-0.296704 0.298296 0.129588
-0.289431 0.297856 0.143174
-0.291721 0.304416 0.150331
-0.303191 0.283052 0.144882
-0.299729 0.282654 0.154724
-0.304607 0.290709 0.151409
-0.307699 0.326422 0.122898
-0.306218 0.312835 0.114556
-0.309438 0.324532 0.122077
-0.320397 0.326753 0.110274
-0.311867 0.326333 0.121252
-0.321215 0.33344 0.113082
-0.318211 0.31276 0.106587
-0.318842 0.319721 0.107811
-0.292675 0.30011 0.100118
-0.297471 0.299784 0.102242
-0.303022 0.296639 0.107695
-0.273834 -0.398483 -0.139972
-0.276012 -0.398313 -0.144723
-0.300435 0.292923 0.100426
-0.298134 0.286015 0.0955306
0.09969 -0.0507534 0.00556059
-0.303651 0.284997 0.109557
-0.308184 0.295546 0.120465
-0.303659 0.285595 0.0987767
-0.305992 0.285126 0.105407
-0.310144 0.298255 0.119891
-0.319519 0.305052 0.108838
-0.321825 0.29961 0.116452
-0.32138 0.290817 0.115012
-0.315756 0.284078 0.116654
-0.319414 0.284225 0.111176
-0.309896 0.326313 0.123141
-0.31792 0.324832 0.143539
-0.320325 0.336592 0.148998
-0.318757 0.338564 0.149758
-0.308807 0.311289 0.140365
0.101209 -0.0444256 0.00306796
-0.317684 0.310918 0.140116
-0.328062 0.324308 0.145062
-0.32368 0.310681 0.139721
-0.332696 0.319614 0.142898
-0.330174 0.310551 0.137001
-0.309985 0.297984 0.124894
-0.308938 0.305611 0.136063
-0.314107 0.303139 0.135056
-0.307473 0.283222 0.138498
-0.310384 0.28965 0.142168
-0.312292 0.296426 0.149425
-0.315282 0.289927 0.138742
-0.31577 0.29118 0.13991
-0.31336 0.283204 0.134238
-0.318479 0.296652 0.146474
-0.320212 0.297201 0.131017
-0.320011 0.297673 0.131131
-0.322744 0.303752 0.138145
-0.322818 0.302645 0.13797
-0.331069 0.303307 0.139659
-0.320941 0.296345 0.145832
-0.362216 0.389417 0.0605358
-0.356935 0.38716 0.0472853
-0.367473 0.39114 0.0737564
-0.326691 0.36116 0.11795
-0.331801 0.36766 0.123993
-0.33605 0.3678 0.128852
-0.34146 0.387397 0.142268
-0.340261 0.38054 0.139603
-0.347999 0.38726 0.139666
-0.346964 0.380372 0.137416
-0.338754 0.374763 0.136097
0.10273 -0.0445906 0.00720429
-0.34521 0.367073 0.13369
-0.342293 0.373626 0.135463
-0.345895 0.373491 0.135082
-0.354678 0.387096 0.137418
-0.353548 0.380226 0.134928
-0.360899 0.387017 0.134008
-0.359607 0.380177 0.131104
-0.352463 0.373349 0.132549
-0.35175 0.367083 0.131082
-0.35756 0.366399 0.126662
-0.358204 0.374046 0.129115
-0.331857 0.360631 0.123462
-0.330767 0.353625 0.123381
-0.334558 0.360359 0.126249
-0.334377 0.353314 0.12617
-0.337523 0.36009 0.128775
-0.337931 0.353053 0.128103
-0.330545 0.346602 0.122959
-0.332858 0.33993 0.12134
-0.333509 0.346395 0.124346
-0.341327 0.345043 0.126378
0.101171 -0.0373548 0.00278266
-0.340369 0.33912 0.122939
-0.344121 0.359662 0.131335
-0.343118 0.352769 0.129166
-0.346441 0.339069 0.119149
-0.348543 0.345606 0.123564
-0.350628 0.339365 0.110567
-0.348573 0.339189 0.115329
-0.352159 0.343411 0.114225
-0.353108 0.345985 0.116489
-0.354978 0.353037 0.121311
-0.350599 0.359536 0.128574
-0.349566 0.352649 0.12633
-0.356422 0.35953 0.12415
-0.371777 0.396184 0.0875939
-0.372751 0.393316 0.0870025
-0.358918 0.368286 0.0916617
-0.372932 0.368 0.0859055
-0.374967 0.381618 0.0932432
-0.362237 0.38183 0.0993354
-0.349463 0.34043 0.0923227
-0.35217 0.339532 0.106356
-0.356927 0.346056 0.105846
-0.352371 0.354425 0.092195
-0.359631 0.353998 0.0942363
-0.362949 0.349825 0.102864
-0.37105 0.354328 0.0848264
-0.369679 0.33916 0.0994418
-0.369557 0.340072 0.083136
-0.366498 0.381042 0.110168
-0.366433 0.38098 0.111337
-0.368909 0.387537 0.118422
-0.36757 0.380537 0.11844
-0.36684 0.379877 0.111097
-0.36783 0.373719 0.113936
-0.366613 0.373529 0.118308
-0.367526 0.366696 0.113544
-0.365206 0.366529 0.118353
-0.366508 0.38705 0.129039
-0.364314 0.380872 0.127024
-0.369611 0.387102 0.125696
-0.372425 0.389173 0.124739
-0.369886 0.390376 0.118244
-0.363935 0.373369 0.123262
-0.363065 0.36645 0.12143
-0.360022 0.352856 0.114458
-0.361806 0.360056 0.119111
-0.36469 0.353064 0.107097
-0.362445 0.352951 0.110871
-0.365836 0.356635 0.109805
-0.36656 0.359797 0.111469
-0.354632 0.346089 0.113446
-0.359 0.350092 0.112019
-0.329606 0.333073 0.114712
-0.328064 0.326166 0.111649
0.105132 -0.0376927 0.0119401
0.105381 -0.0375059 0.0087615
-0.332043 0.325904 0.113284
-0.323427 0.319478 0.108625
-0.322632 0.312466 0.108428
-0.327483 0.319196 0.110552
-0.328627 0.31066 0.11341
-0.331138 0.318894 0.113131
-0.347421 0.3258 0.103177
-0.344641 0.325635 0.108309
-0.34878 0.333482 0.106986
-0.341061 0.311749 0.106997
-0.339136 0.311695 0.109463
-0.342201 0.318201 0.109017
-0.34677 0.318843 0.101902
-0.345752 0.311952 0.0996977
-0.32552 0.304956 0.114329
0.106095 -0.0339689 0.0092993
-0.3274 0.299569 0.112943
-0.332759 0.298056 0.105884
-0.334231 0.305182 0.110522
-0.32407 0.284434 0.103783
-0.322168 0.284361 0.10657
-0.324889 0.287214 0.105707
-0.325968 0.291162 0.108228
-0.331053 0.291293 0.101928
-0.328681 0.291252 0.104509
-0.33174 0.294131 0.103514
-0.329331 0.284532 0.0979313
-0.339531 0.304953 0.10349
-0.33725 0.298747 0.101396
-0.34444 0.305116 0.0967424
-0.341928 0.305027 0.100298
-0.345575 0.311036 0.0992996
-0.343448 0.298221 0.0946011
-0.336861 0.29129 0.0974671
-0.335797 0.284408 0.0951429
-0.343209 0.291187 0.094376
-0.343208 0.284109 0.0947567
-0.338459 0.333101 0.118428
-0.337393 0.325513 0.116138
-0.337906 0.318341 0.117823
-0.336266 0.311565 0.114036
-0.306127 -0.0788861 -0.20161
-0.29976 -0.0859485 -0.2072
-0.304684 -0.0784358 -0.208592
-0.335378 0.310095 0.141152
-0.34433 0.33238 0.114165
-0.345269 0.335608 0.116369
-0.34293 0.32556 0.110985
-0.346222 0.28301 0.112174
-0.348307 0.283167 0.107719
-0.349306 0.289552 0.119018
-0.346613 0.282582 0.119571
-0.352599 0.293668 0.118021
-0.353606 0.289268 0.120807
-0.353501 0.282209 0.120921
-0.349278 0.326376 0.0913749
-0.366623 0.326007 0.0845247
-0.364789 0.32907 0.070305
-0.368385 0.32513 0.0989323
-0.346349 0.298324 0.0904902
-0.348776 0.293446 0.0891815
-0.359313 0.310426 0.116596
-0.363122 0.310884 0.105401
-0.359963 0.312437 0.116487
-0.36244 0.317387 0.115872
-0.367008 0.323811 0.114542
-0.365265 0.323936 0.122818
-0.367235 0.324281 0.115093
-0.369806 0.330448 0.129087
-0.366345 0.323493 0.129943
-0.372638 0.334168 0.128243
-0.360641 0.317006 0.124135
-0.361319 0.317226 0.119662
-0.362917 0.32081 0.123515
-0.359609 0.309999 0.124032
-0.365165 0.316458 0.130471
-0.3655 0.320598 0.130066
-0.364858 0.309434 0.130121
-0.363907 0.302459 0.129375
-0.254398 0.274686 0.079453
-0.257306 0.273662 0.0694884
-0.256915 0.282269 0.0680346
-0.260226 0.272047 0.0769688
-0.256543 0.282929 0.0564621
-0.256212 0.275907 0.0560818
-0.257253 0.282493 0.0637327
-0.256971 0.275471 0.0633341
-0.25683 0.268865 0.0553283
-0.258217 0.26072 0.0536911
-0.257875 0.268423 0.0624668
-0.25992 0.261351 0.0611486
-0.259609 0.267967 0.0693328
-0.263635 0.260936 0.0669779
-0.266673 0.267143 0.0747197
-0.270743 0.260281 0.0719775
-0.297362 -0.143747 -0.0436529
-0.260972 0.257655 0.0604662
-0.259444 0.254752 0.0532746
-0.260475 0.247702 0.052357
-0.26179 0.254283 0.0598996
-0.262786 0.247233 0.0589965
-0.260666 0.240669 0.0517715
-0.260226 0.23365 0.051435
-0.262741 0.240206 0.0585034
-0.26212 0.233189 0.0582385
-0.265989 0.253773 0.0657924
-0.266509 0.246734 0.0650772
-0.272498 0.253189 0.0712454
-0.272281 0.246123 0.0715675
-0.266017 0.239716 0.0647611
-0.264912 0.23271 0.064687
-0.269696 0.239218 0.0708597
-0.267033 0.232246 0.071401
-0.261575 0.274331 0.0802636
-0.266872 0.28157 0.0902103
-0.270203 0.272617 0.103449
-0.264192 0.275545 0.10599
-0.266953 0.261394 0.0945768
-0.268529 0.265969 0.0983215
-0.269177 0.272895 0.0818104
-0.272168 0.276828 0.0877818
-0.276286 0.27338 0.085912
-0.275747 0.266201 0.0791547
-0.273974 0.260024 0.0740934
-0.278461 0.270832 0.0848712
-0.274582 0.281027 0.0936682
-0.279553 0.27315 0.0875109
-0.281328 0.277195 0.0917879
-0.277679 0.27996 0.0934232
-0.282097 0.279759 0.0935971
-0.277684 0.265871 0.0996456
-0.273565 0.257803 0.0938765
-0.283579 0.258643 0.0969268
-0.257103 0.238645 0.090935
-0.256225 0.231677 0.0900239
-0.26305 0.238667 0.0859209
-0.264184 0.246866 0.0883504
-0.25751 0.245666 0.0912854
-0.261937 0.231795 0.08347
-0.265089 0.252447 0.0903396
-0.264756 0.231874 0.0798516
-0.266533 0.232015 0.075927
-0.267779 0.235246 0.0789072
-0.268941 0.238649 0.0816673
-0.270155 0.244985 0.0863916
-0.271214 0.238765 0.0778113
-0.27465 0.242631 0.0767411
-0.277664 0.245088 0.0835391
-0.272566 0.252137 0.0901199
-0.279738 0.250729 0.0910637
-0.277709 0.259712 0.0767779
-0.281397 0.266243 0.0833835
-0.284394 0.259106 0.0824794
-0.287552 0.272047 0.0891213
-0.289315 0.279496 0.0927189
-0.297078 0.278904 0.0933973
-0.297132 0.272134 0.0921165
-0.286455 0.265867 0.0862127
-0.289434 0.265652 0.0877604
-0.293091 0.258517 0.0863121
-0.295171 0.265327 0.0891452
-0.299804 0.265011 0.0912168
-0.302931 0.258145 0.0893813
-0.278564 0.252666 0.0759295
-0.276453 0.245682 0.0762531
-0.284189 0.251757 0.0812284
-0.310846 -0.111238 -0.00422456
-0.286605 0.247707 0.0875701
-0.288712 0.250674 0.094538
-0.293451 0.252591 0.0851376
-0.29321 0.248935 0.085061
-0.294475 0.244221 0.0885189
-0.293423 0.244061 0.0922059
-0.294526 0.237025 0.0909777
-0.294 0.230152 0.0880731
-0.28889 0.229197 0.0932104
-0.309967 -0.118154 -0.00607801
-0.3016 0.251053 0.0870218
-0.30277 0.243896 0.087912
-0.304417 0.250856 0.0883743
-0.301428 0.236928 0.0873484
-0.300428 0.230034 0.0851878
-0.306946 0.236108 0.0864995
-0.307575 0.229784 0.0841296
-0.259371 0.22664 0.0512626
-0.258292 0.219634 0.0511776
-0.26109 0.226183 0.0581346
-0.259459 0.21795 0.0581783
-0.258162 0.212188 0.0582703
-0.257033 0.21169 0.052527
-0.255874 0.205208 0.0586634
-0.255466 0.20569 0.0503157
-0.303682 -0.132219 -0.00206543
-0.260616 0.218325 0.0729145
-0.261629 0.220061 0.0650598
-0.264427 0.226357 0.0714229
-0.263247 0.225717 0.0648341
-0.26052 0.218969 0.0614046
-0.259037 0.21175 0.0654758
-0.256731 0.20477 0.0658769
-0.258426 0.211283 0.074335
-0.257494 0.203627 0.0736004
-0.25356 0.19078 0.0661075
-0.251496 0.191808 0.0592306
-0.254974 0.197225 0.067534
-0.256675 0.197322 0.0729388
-0.256251 0.190303 0.0725964
-0.253648 0.182723 0.0654877
-0.251461 0.184264 0.059484
-0.256388 0.183371 0.0719671
-0.253302 0.198654 0.051617
-0.254432 0.198858 0.0470735
-0.251468 0.191665 0.0518307
-0.253847 0.191888 0.0459657
-0.253028 0.198239 0.0592773
-0.250561 0.184655 0.0516786
-0.249811 0.177642 0.0514644
-0.251678 0.177182 0.0582787
-0.254234 0.176708 0.0648207
-0.308861 -0.126039 -0.0088127
-0.256943 0.176231 0.0713021
-0.307481 -0.13195 -0.00987437
-0.254552 0.224642 0.0909221
-0.255756 0.224788 0.0873658
-0.254953 0.217605 0.0902536
-0.255363 0.217783 0.086749
-0.25715 0.217979 0.0818348
-0.259158 0.218151 0.0771681
-0.260469 0.226144 0.0808079
-0.256617 0.211558 0.0891601
-0.257134 0.21095 0.0813308
-0.258211 0.203898 0.0803944
-0.260214 0.203436 0.087155
-0.255325 0.224206 0.0981684
-0.257074 0.21714 0.0969675
-0.259659 0.223694 0.104009
-0.261773 0.217599 0.102271
-0.259445 0.211264 0.0956076
-0.26501 0.203049 0.0925275
-0.309271 -0.109878 -0.0274535
-0.267733 0.210287 0.0993071
-0.308617 -0.117132 -0.0234017
-0.31058 -0.11377 -0.0239296
-0.280729 0.216308 0.0935519
-0.276545 0.216264 0.0975824
-0.282815 0.222489 0.0951384
-0.273934 0.209414 0.095886
-0.274583 0.212797 0.0973463
-0.272476 0.202605 0.0925623
-0.279689 0.209421 0.0912914
-0.278552 0.202553 0.0887818
-0.259639 0.195379 0.0799217
-0.258242 0.190007 0.0763659
-0.262255 0.199108 0.0860382
-0.259834 0.189807 0.0787333
-0.263523 0.196337 0.0853379
-0.26769 0.189163 0.0842086
-0.312471 -0.116247 -0.0172718
-0.260576 0.182762 0.0779291
-0.261222 0.17572 0.0771636
-0.26809 0.182211 0.0825068
-0.267203 0.175265 0.0806826
-0.270252 0.175107 0.0811494
-0.270518 0.195888 0.0879652
-0.271386 0.198803 0.0900055
-0.312965 -0.110196 -0.024608
-0.277261 0.195713 0.0858801
-0.277963 0.199394 0.0874612
-0.276183 0.188834 0.0835197
-0.275363 0.181906 0.0818204
-0.274592 0.174971 0.0802393
-0.287338 0.223234 0.0907456
-0.28631 0.216346 0.0885129
-0.293076 0.223245 0.0861048
-0.292231 0.216323 0.0843373
-0.28435 0.202551 0.0842931
-0.281715 0.202559 0.0862146
-0.284769 0.205257 0.0852096
-0.285365 0.209442 0.086494
-0.290342 0.202514 0.0802989
-0.290923 0.210159 0.0830396
-0.299482 0.223131 0.0831648
-0.298634 0.216209 0.0813899
-0.306454 0.222913 0.0816618
-0.30543 0.216024 0.0794381
-0.297693 0.209304 0.0793774
-0.298204 0.212886 0.0804789
-0.296555 0.202436 0.0768669
-0.304478 0.210367 0.0773336
-0.302853 0.202343 0.0736491
-0.280335 0.17498 0.0756119
-0.277263 0.174959 0.0783804
-0.281588 0.181586 0.0773326
-0.287146 0.18187 0.0733195
-0.288843 0.188483 0.0748937
-0.286073 0.17499 0.070973
-0.283261 0.195674 0.0819063
-0.28223 0.188787 0.0796672
-0.289207 0.195646 0.0777978
-0.294103 0.188733 0.0713955
-0.294737 0.192659 0.0727922
-0.299905 0.188731 0.0669182
-0.301008 0.195963 0.0704621
-0.293106 0.181839 0.0692429
-0.292124 0.174941 0.0671275
-0.298809 0.181855 0.0645126
-0.297798 0.175148 0.0626343
-0.295256 0.195599 0.0739458
-0.264998 0.279708 0.107808
-0.272062 0.279473 0.106542
-0.273704 0.257433 0.131054
-0.279398 0.27847 0.107803
-0.278434 0.272287 0.103894
-0.286191 0.272337 0.104365
-0.287961 0.278676 0.108505
-0.284445 0.265169 0.10033
-0.26134 0.230266 0.111406
-0.26314 0.236837 0.118757
-0.267367 0.229308 0.116848
-0.267323 0.243357 0.125167
-0.273472 0.249846 0.130592
-0.273195 0.24434 0.130511
-0.270395 0.235884 0.124229
-0.273244 0.229174 0.121808
-0.273966 0.235768 0.129584
-0.278904 0.228339 0.127103
-0.277969 0.270235 0.141165
-0.282306 0.270313 0.136394
-0.276047 0.270669 0.138631
-0.274357 0.263823 0.132362
-0.277868 0.263176 0.141288
-0.277177 0.256316 0.138275
-0.281329 0.263305 0.136269
-0.31527 -0.110665 -0.0179671
-0.301747 0.277968 0.144191
-0.299085 0.275656 0.154168
-0.300681 0.269135 0.143299
-0.29945 0.268689 0.152278
-0.30114 0.262058 0.143297
-0.300735 0.261632 0.15126
-0.301329 0.260271 0.143346
-0.303777 0.256953 0.149724
-0.271623 0.227948 0.145102
-0.296372 0.271273 0.108186
-0.300857 0.259157 0.103875
-0.303611 0.270847 0.110216
-0.303798 0.277891 0.110311
-0.302707 0.263936 0.108301
-0.30621 0.278397 0.0972986
-0.306143 0.271503 0.0964561
-0.309003 0.282824 0.104055
-0.314891 0.276831 0.101564
-0.314479 0.27098 0.0993906
-0.304556 0.264664 0.0937741
-0.307927 0.264419 0.0955599
-0.31156 0.256375 0.0937139
-0.313323 0.264115 0.0968323
-0.308003 0.277634 0.111654
-0.311454 0.279575 0.110437
-0.305928 0.27065 0.111963
-0.311664 0.277136 0.117759
-0.314156 0.28213 0.117141
-0.310422 0.270134 0.117739
-0.318069 0.281037 0.107941
-0.305872 0.263622 0.111475
-0.306798 0.256574 0.110598
-0.309596 0.263123 0.117555
-0.309694 0.256092 0.117006
-0.296568 0.243834 0.0938397
-0.298336 0.251064 0.0979273
-0.285736 0.229132 0.101727
-0.292303 0.229396 0.102987
-0.297806 0.236457 0.097223
-0.300563 0.229058 0.102646
-0.305183 0.235166 0.116122
-0.30202 0.23517 0.118505
-0.305712 0.244017 0.116981
-0.300143 0.242229 0.119936
-0.305454 0.232415 0.116955
-0.3008 0.243484 0.0968433
-0.305164 0.25 0.103182
-0.305771 0.242958 0.102431
-0.310887 0.250408 0.0914042
-0.309545 0.243577 0.0883738
-0.303864 0.235971 0.102674
-0.30604 -0.124106 -0.0228937
-0.310961 0.227951 0.114464
-0.30499 0.269523 0.13295
-0.303536 0.269441 0.135562
-0.306285 0.276127 0.135211
-0.311713 0.276429 0.130432
-0.312714 0.280454 0.132751
-0.310348 0.269603 0.127343
-0.304164 0.262598 0.13123
-0.302538 0.262434 0.135445
-0.302759 0.254418 0.128115
-0.302472 0.255407 0.134961
-0.308541 0.255781 0.123512
-0.305325 0.255766 0.126283
-0.309382 0.262378 0.125286
-0.304477 -0.131101 -0.0227874
-0.301129 0.249002 0.124278
-0.299639 0.248858 0.128018
-0.298806 0.241847 0.127836
-0.303195 0.248363 0.134165
-0.303567 0.241473 0.130856
-0.304645 0.245354 0.133376
-0.306773 0.249029 0.1194
-0.310513 0.24126 0.129288
-0.311126 0.243716 0.130708
-0.264511 0.223688 0.108487
-0.309174 -0.124593 -0.0165809
-0.307384 -0.131583 -0.0163841
-0.269361 0.216267 0.103108
-0.270983 0.221152 0.106951
-0.271919 0.222873 0.109227
-0.273725 0.224645 0.113708
-0.314626 -0.110867 -0.0138402
-0.313298 -0.111043 -0.00963728
-0.276373 0.225945 0.120342
-0.276021 0.223417 0.104698
-0.280338 0.226022 0.111207
-0.311168 -0.118027 -0.00930626
-0.286941 0.227196 0.108695
-0.286025 0.222307 0.123863
-0.291551 0.214272 0.121077
-0.289994 0.222025 0.115386
-0.281626 0.227558 0.133557
-0.284054 0.223768 0.139908
-0.287834 0.220903 0.130519
-0.286561 0.220602 0.138693
-0.289857 0.213503 0.136881
-0.289827 0.213559 0.135907
-0.29047 0.21391 0.129087
-0.290132 0.212792 0.13672
-0.29365 0.206429 0.127293
-0.291742 0.20721 0.121687
-0.296361 0.206336 0.133801
-0.296403 0.206273 0.133781
-0.293452 0.226252 0.106064
-0.294745 0.221867 0.109577
-0.294591 0.214709 0.111512
-0.300834 0.221812 0.105828
-0.30085 0.214731 0.106249
-0.292548 0.207677 0.112653
-0.294453 0.207765 0.109595
-0.289699 0.200709 0.113268
-0.293782 0.20081 0.108272
-0.291453 0.200251 0.120127
-0.300538 0.20771 0.105839
-0.300085 0.200716 0.105067
-0.316185 0.213783 0.111381
-0.316631 0.1998 0.108677
-0.317502 0.20798 0.110441
-0.296232 0.186014 0.118628
-0.300317 0.186516 0.106421
-0.292551 0.1932 0.119183
-0.303101 0.178002 0.113929
-0.312152 0.185754 0.110931
-0.31694 0.194969 0.109718
-0.296528 0.199724 0.125674
-0.301543 0.199197 0.131245
-0.299344 0.192635 0.124052
-0.299714 0.191278 0.123807
-0.299147 -0.0849266 -0.214467
-0.296712 -0.0884153 -0.213763
-0.301222 0.185567 0.122799
-0.312277 0.24628 0.0376398
-0.311967 0.246186 0.0395738
-0.31304 0.249551 0.0393958
-0.310957 0.239445 0.0346675
-0.310094 0.239198 0.0398029
-0.310014 0.232541 0.0326506
-0.308432 0.232204 0.0399485
-0.310089 0.231749 0.0468454
-0.311265 0.238752 0.0468916
-0.315749 0.231209 0.0521622
-0.317027 0.23821 0.0521677
-0.314573 0.230685 0.0826325
-0.320309 0.229572 0.0780498
-0.320828 0.237523 0.0807383
-0.318273 0.231017 0.0536454
-0.323915 0.230615 0.0564884
-0.329261 0.233404 0.0621705
-0.327482 0.230119 0.0626313
-0.333367 0.243456 0.0720272
-0.328021 0.243414 0.0784942
-0.335105 0.248689 0.0761452
-0.326281 0.236618 0.0736212
-0.324697 0.230236 0.0711694
-0.330711 0.236868 0.0656567
-0.328395 0.236709 0.0703319
-0.303753 0.218583 0.0347172
-0.303973 0.218242 0.0406886
-0.30581 0.223752 0.0403665
-0.300548 0.204907 0.0293373
-0.300264 0.204684 0.033581
-0.301486 0.211735 0.0327341
-0.304654 0.211113 0.0414526
-0.302402 0.215014 0.03349
-0.304489 0.20282 0.0396732
-0.306372 0.217988 0.0433796
-0.308883 0.225672 0.0301579
-0.307883 0.225607 0.0321033
-0.309593 0.229765 0.0317335
-0.307099 0.218924 0.0260027
-0.303087 0.212072 0.0254251
-0.306443 0.216868 0.0244534
-0.300976 0.205089 0.0257487
-0.30945 0.224733 0.0465874
-0.30945 0.217705 0.046077
-0.315527 0.224185 0.0517397
-0.315477 0.217158 0.0512482
-0.309851 0.210668 0.0454085
-0.309832 0.20364 0.044906
-0.314678 0.210145 0.0510543
-0.312947 0.203154 0.0512268
-0.29915 0.198087 0.0261647
-0.299492 0.197671 0.0333762
-0.298361 0.190667 0.0333121
-0.303569 0.197271 0.0373997
-0.303877 0.190172 0.0379122
-0.297491 0.183656 0.0331456
-0.296974 0.176639 0.0328389
-0.303206 0.183115 0.0384395
-0.303752 0.186295 0.0384559
-0.30199 0.176112 0.0384097
-0.306172 0.182703 0.0448255
-0.304295 0.175643 0.0450506
-0.305835 0.182219 0.0525052
-0.308812 0.190274 0.0515678
-0.303121 0.175188 0.0541374
-0.310843 0.19617 0.0515469
-0.313438 0.222693 0.0801886
-0.312319 0.215822 0.0777243
-0.319646 0.222616 0.0767451
-0.318727 0.215707 0.0747913
-0.308895 0.202297 0.0697836
-0.311027 0.209782 0.0747798
-0.31318 0.202868 0.0656229
-0.317492 0.209987 0.0719711
-0.318096 0.223971 0.0535773
-0.317908 0.216927 0.0534803
-0.322553 0.223615 0.0565157
-0.32145 0.21661 0.0564412
-0.326751 0.223106 0.0624096
-0.328097 0.216116 0.060157
-0.328567 0.217363 0.0612783
-0.319515 0.209816 0.0583712
-0.314353 0.202704 0.0582231
-0.321612 0.208044 0.0633376
-0.32746 0.209156 0.0589179
-0.327908 0.20214 0.0604319
-0.324761 0.22197 0.0706738
-0.325464 0.215533 0.0726903
-0.331259 0.219679 0.0679694
-0.329003 0.215189 0.0761129
-0.333902 0.220887 0.0745989
-0.32261 0.208717 0.0705749
-0.324157 0.206965 0.0698403
-0.324684 0.208599 0.0710883
-0.326164 0.201613 0.0686618
-0.328042 0.20197 0.0607783
-0.328305 0.208176 0.0758783
-0.328785 0.201137 0.0751775
-0.306888 0.195589 0.0650628
-0.308149 0.19977 0.0680321
-0.305166 0.188598 0.0608663
-0.310808 0.195935 0.055802
-0.309894 0.19577 0.0594736
-0.312081 0.199108 0.0588558
-0.303821 0.181999 0.0580297
-0.301126 0.181899 0.061915
-0.326806 0.187961 0.0598364
-0.326763 0.18805 0.0582912
-0.327398 0.190338 0.0597753
-0.324994 0.180971 0.0600412
-0.325639 0.181179 0.0558134
-0.323881 0.173967 0.0599701
-0.324828 0.17425 0.054133
-0.327415 0.194557 0.0676568
-0.328319 0.19484 0.0618644
-0.326735 0.187543 0.0674157
-0.329207 0.194099 0.074501
-0.328291 0.18709 0.0743519
-0.325013 0.180551 0.0675847
-0.323729 0.173451 0.0693661
-0.325645 0.177495 0.0746963
-0.321557 0.271634 0.0981087
-0.32771 0.270675 0.0945738
-0.325304 0.277686 0.0972702
-0.328368 0.27889 0.095798
-0.320612 0.263838 0.096136
-0.319506 0.256964 0.0937085
-0.327205 0.26369 0.0936717
-0.326212 0.256795 0.0915275
-0.322238 0.277695 0.0995079
-0.334177 0.27055 0.0917879
-0.335715 0.277836 0.0930862
-0.341143 0.271237 0.0902203
-0.333675 0.263565 0.0908923
-0.332549 0.256694 0.0884091
-0.337992 0.256758 0.0830227
-0.337736 0.256755 0.0832777
-0.338055 0.256996 0.0831693
-0.339797 0.263504 0.0872281
-0.342371 0.277185 0.0930111
-0.34444 0.26941 0.104305
-0.345451 0.269538 0.10122
-0.346247 0.276436 0.103462
-0.345536 0.262359 0.103361
-0.345294 0.262489 0.101203
-0.346028 0.261572 0.103111
-0.318097 0.250187 0.0905046
-0.316438 0.243374 0.0866704
-0.322549 0.243315 0.0829784
-0.324579 0.250435 0.0877371
-0.315294 0.236507 0.084145
-0.33046 0.250002 0.0834839
-0.331319 0.252741 0.0855103
-0.335559 0.250129 0.0772188
-0.33936 0.235215 0.0886566
-0.339177 0.235305 0.0871794
-0.339747 0.236168 0.0885741
-0.335889 0.22826 0.089517
-0.337319 0.22857 0.0828353
-0.339862 0.235179 0.088921
-0.343061 0.276049 0.112911
-0.34673 0.277805 0.104014
-0.344959 0.26898 0.111651
-0.349356 0.275495 0.117977
-0.347155 0.262145 0.105934
-0.348702 0.263464 0.109779
-0.33332 0.221706 0.08247
-0.334838 0.22195 0.0769126
-0.336761 0.227073 0.0815057
-0.335255 0.214636 0.0811946
-0.338351 0.22118 0.0880343
-0.336443 0.214575 0.081372
-0.339065 0.220406 0.0876973
-0.335844 0.207608 0.0802318
-0.336044 0.210474 0.0805827
-0.335254 0.200579 0.0801742
-0.335743 0.203524 0.080196
-0.335725 0.200552 0.0803079
-0.334241 0.186124 0.0871048
-0.337791 0.190961 0.0860596
-0.33038 0.172148 0.0876093
-0.336245 0.207587 0.0802935
-0.292812 0.351493 0.19123
-0.2943 0.344433 0.190132
-0.296719 0.337557 0.185015
-0.298149 0.341627 0.188414
-0.3014 0.337253 0.186818
-0.313252 0.344789 0.168982
-0.308963 0.34496 0.169239
-0.312663 0.342584 0.16761
-0.328654 0.377337 0.20623
-0.323579 0.376234 0.211491
-0.33034 0.383834 0.209444
-0.322075 0.370404 0.209114
-0.320176 0.370317 0.21216
-0.320575 0.363603 0.205682
-0.317264 0.36335 0.2128
-0.325519 0.363759 0.199022
-0.322491 0.363659 0.203184
-0.327596 0.370056 0.201897
-0.322995 0.35007 0.193371
-0.316795 0.350237 0.19683
-0.323776 0.355256 0.19507
-0.31566 0.343276 0.19433
-0.316497 0.35015 0.196979
-0.319336 0.336588 0.18483
-0.317104 0.336499 0.188168
-0.320269 0.33867 0.18708
-0.321672 0.343235 0.190388
-0.318417 0.356923 0.200577
-0.315643 0.356777 0.205379
-0.319877 0.361264 0.204039
-0.324358 0.365719 0.16469
-0.327088 0.373099 0.164152
-0.330441 0.36475 0.17739
-0.332501 0.376233 0.177413
-0.33078 0.38723 0.153572
-0.329408 0.387118 0.156675
-0.327998 0.380119 0.156722
-0.329351 0.386699 0.164249
-0.328799 0.379681 0.163957
-0.320819 0.338452 0.150148
-0.326054 0.349203 0.162824
-0.326927 0.351482 0.164911
-0.33165 0.358764 0.17648
-0.338607 0.337254 0.157032
-0.343247 0.350607 0.167946
-0.34454 0.353773 0.171047
-0.337825 0.385223 0.191136
-0.334848 0.378314 0.183855
-0.334628 0.377878 0.191861
-0.332554 0.371314 0.184618
-0.330713 0.364324 0.184835
-0.331064 0.370577 0.193127
-0.329083 0.364018 0.191601
-0.335364 0.384407 0.200792
-0.33483 0.391091 0.207905
-0.333253 0.378899 0.199612
-0.329295 0.349975 0.190157
-0.295201 0.330734 0.18122
-0.294624 0.323762 0.180883
-0.295107 0.32333 0.188282
-0.300987 0.330759 0.17702
-0.301868 0.336067 0.178966
-0.297437 0.3237 0.17981
-0.301372 0.324591 0.178327
-0.304302 0.332413 0.185325
-0.2995 0.323237 0.186547
-0.304037 0.326282 0.184984
-0.307594 0.330609 0.174589
-0.308332 0.33401 0.176273
-0.308004 0.324478 0.175959
-0.306087 0.330125 0.184456
-0.309511 0.330254 0.179463
-0.309581 0.323022 0.182566
-0.310624 0.327068 0.18245
-0.313257 0.330632 0.169758
-0.314869 0.333683 0.173678
-0.312866 0.323626 0.169146
-0.312271 0.329994 0.182014
-0.317448 0.33336 0.180223
-0.309823 0.31604 0.181018
-0.309619 0.315992 0.182041
-0.30856 0.309195 0.178189
-0.308013 0.308998 0.182164
-0.312647 0.316588 0.168971
-0.310517 0.316393 0.174134
-0.31189 0.309298 0.165787
-0.309182 0.309393 0.174152
-0.307012 0.296394 0.155789
-0.305091 0.296263 0.159644
-0.308204 0.299409 0.158647
-0.30951 0.303011 0.16176
-0.30755 0.302819 0.166734
-0.303598 0.296216 0.167482
-0.298719 0.282341 0.161139
-0.30106 0.28975 0.16059
-0.300469 0.288912 0.16851
-0.299768 0.281899 0.168276
-0.303152 0.295464 0.175512
-0.30655 0.303569 0.174257
-0.306 0.302013 0.182449
-0.304828 0.33005 0.186784
-0.312436 0.329714 0.186897
-0.311871 0.329582 0.189723
-0.313429 0.332016 0.189288
-0.309863 0.322596 0.190006
-0.322628 0.323584 0.162311
-0.317819 0.323696 0.164037
-0.318467 0.325282 0.164071
-0.317573 0.316748 0.162267
-0.315462 0.316708 0.16463
-0.316459 0.309875 0.159816
-0.324422 0.316553 0.160452
-0.324731 0.318601 0.161122
-0.334008 0.323999 0.145986
-0.313928 0.303433 0.156418
-0.320126 0.302971 0.154217
-0.321435 0.302328 0.153655
-0.32492 0.384036 0.215584
-0.322182 0.383912 0.21994
-0.326334 0.390717 0.218802
-0.319351 0.376943 0.220548
-0.331516 0.390966 0.212742
-0.326438 0.39085 0.21877
-0.317958 0.370096 0.217874
-0.319164 0.376465 0.220586
-0.356007 0.35039 0.161932
-0.357784 0.357014 0.166073
-0.353533 0.33669 0.156406
-0.354645 0.343132 0.158871
-0.362205 0.350315 0.158461
-0.368511 0.349883 0.161335
-0.357902 0.336471 0.156952
-0.361923 0.343289 0.158125
-0.361877 0.336219 0.158389
-0.366461 0.342898 0.161634
-0.365089 0.335898 0.161666
-0.372482 0.337 0.136092
-0.373844 0.337217 0.131133
-0.377429 0.350712 0.139482
-0.37398 0.343577 0.143562
-0.373162 0.336566 0.143375
-0.376416 0.350554 0.14311
-0.37743 0.343084 0.149751
-0.376681 0.350129 0.150557
-0.379047 0.336021 0.148602
-0.382398 0.342716 0.152496
-0.381096 0.335879 0.149567
-0.298683 -0.0844966 -0.221835
-0.347755 0.323049 0.152388
-0.370678 0.33001 0.136294
-0.370095 0.322994 0.136014
-0.373361 0.329533 0.142786
-0.374225 0.322487 0.141934
-0.370441 0.315958 0.135367
-0.370487 0.308928 0.134838
-0.375793 0.315424 0.140805
-0.376445 0.308424 0.139268
-0.376816 0.310888 0.140073
-0.379902 0.328974 0.147755
-0.379628 0.321993 0.146598
-0.380095 0.326816 0.147521
-0.380313 0.328945 0.147957
-0.377867 0.31524 0.142501
-0.365244 0.302345 0.130402
-0.365089 0.295295 0.13039
-0.363577 0.295438 0.128995
-0.369863 0.301913 0.134574
-0.298498 0.275317 0.160716
-0.299207 0.268453 0.156701
-0.299074 0.268277 0.159978
-0.30001 0.274865 0.16767
-0.300986 0.267816 0.166774
-0.377438 0.382846 0.0692344
-0.373582 0.383768 0.0556544
-0.378552 0.368864 0.0659763
-0.378887 0.375954 0.0651373
-0.377499 0.37988 0.061413
-0.374996 0.381918 0.054964
-0.378304 0.376219 0.0608305
-0.378089 0.376643 0.0533645
-0.378045 0.369195 0.0604229
-0.378488 0.369606 0.0526965
-0.374793 0.354788 0.0682373
-0.374965 0.355443 0.056313
-0.376098 0.382034 0.0848662
-0.369646 0.340841 0.0692493
-0.42142 0.370792 -0.00201523
-0.427806 0.384693 -0.00314997
-0.429851 0.369776 0.00199684
-0.428474 0.391648 -0.0018358
-0.428842 0.363126 0.00316985
-0.421127 0.363622 0.000241311
-0.420446 0.368928 -0.00176721
-0.426031 0.356217 0.00269468
-0.421401 0.356493 0.00132087
-0.421397 0.342338 0.00207289
-0.41442 0.349855 -0.000781589
-0.421378 0.349419 0.00164345
-0.424967 0.349211 0.00260372
-0.42353 0.342212 0.00266088
-0.430266 0.355926 0.00462815
-0.430326 0.348837 0.00516445
-0.431241 0.341662 0.00656113
-0.433811 0.391195 0.00217379
-0.433763 0.384167 0.00168222
-0.432995 0.377155 0.00147545
-0.438673 0.390671 0.00780521
-0.438595 0.383644 0.00732606
-0.441753 0.390186 0.0141399
-0.441977 0.383995 0.013534
-0.437879 0.376631 0.00709743
-0.436702 0.369627 0.00705269
-0.441441 0.376135 0.0132428
-0.441772 0.379253 0.0133392
-0.440191 0.369133 0.0132264
-0.435421 0.362626 0.00704772
-0.434388 0.355619 0.00694533
-0.439011 0.36213 0.0131821
-0.437868 0.355125 0.0131225
-0.433309 0.348613 0.00686134
-0.436491 0.348125 0.0131558
-0.435227 0.341124 0.0131449
-0.444038 0.389717 0.0207888
-0.444705 0.383875 0.0201029
-0.447389 0.388792 0.0272816
-0.448209 0.38218 0.0261831
-0.44291 0.375896 0.0164005
-0.443015 0.368652 0.019662
-0.444306 0.374593 0.0195855
-0.445525 0.368335 0.0234325
-0.448522 0.375145 0.0255489
-0.447596 0.368136 0.0254048
-0.453757 0.38867 0.0320541
-0.456157 0.381316 0.0306018
-0.45717 0.388488 0.032663
-0.455599 0.374623 0.0294322
-0.455316 0.367597 0.0290938
-0.462267 0.381538 0.0267751
-0.459451 0.38152 0.0292951
-0.46343 0.388119 0.0282791
-0.467593 0.388703 0.0207048
-0.46792 0.381726 0.0190144
-0.461672 0.37457 0.0256438
-0.461444 0.367534 0.025446
-0.467199 0.374725 0.0185795
-0.466744 0.367707 0.0182112
-0.441659 0.361653 0.0196874
-0.44052 0.354649 0.0196267
-0.446375 0.361161 0.024867
-0.446121 0.354132 0.0245583
-0.439134 0.34765 0.0196635
-0.437702 0.340652 0.0197182
-0.44558 0.346992 0.0246518
-0.443149 0.340115 0.025119
-0.454659 0.360639 0.0278064
-0.453587 0.35376 0.0254594
-0.446191 0.339899 0.0266503
-0.452897 0.346808 0.0240881
-0.453066 0.339699 0.0249018
-0.464132 0.339795 0.0145788
-0.4592 0.339759 0.0190621
-0.463955 0.346725 0.0169939
-0.460846 0.360566 0.0243088
-0.459903 0.353662 0.0222908
-0.466494 0.360682 0.0178314
-0.465865 0.35306 0.0172201
-0.459062 0.346739 0.0205343
-0.421867 0.335219 0.00280751
-0.421492 0.335242 0.00269568
-0.421504 0.333459 0.00282292
-0.421585 0.328147 0.0033115
-0.420314 0.328224 0.0029104
-0.430706 0.334853 0.00694931
-0.429332 0.327612 0.0069001
-0.43275 0.328278 0.0131866
-0.421883 0.321013 0.00445419
-0.418155 0.321241 0.00325285
-0.423249 0.31354 0.00823067
-0.415462 0.31427 0.00380556
-0.427326 0.320626 0.00718242
-0.204463 -0.189601 -0.162077
-0.429902 0.320151 0.013717
-0.425317 0.313349 0.0136364
