-0.380628 -0.183233 -0.310028
-0.378497 -0.183937 -0.305557
-0.145305 0.30589 0.137418
-0.146364 0.300852 0.132685
-0.157677 -0.431756 -0.134806
-0.144355 0.310203 0.142938
-0.157896 -0.436685 -0.137926
-0.382686 -0.179562 -0.325368
-0.380208 -0.178876 -0.331885
-0.378159 -0.179103 -0.327377
-0.154006 -0.430839 -0.138527
-0.380627 -0.179845 -0.320864
-0.378483 -0.180627 -0.316398
-0.376195 -0.178845 -0.322832
-0.374065 -0.179543 -0.31836
-0.376301 -0.181624 -0.31195
-0.374203 -0.182136 -0.307464
-0.154081 -0.432976 -0.139691
-0.154085 -0.435704 -0.140973
-0.371904 -0.18042 -0.313902
-0.369919 -0.180275 -0.309366
-0.150823 0.299927 0.13463
-0.150155 0.304444 0.140027
-0.150718 -0.420186 -0.138577
-0.148112 0.309115 0.145016
-0.371639 -0.178556 -0.324855
-0.369565 -0.178933 -0.320358
-0.150216 -0.425369 -0.141244
-0.367563 -0.178886 -0.315829
-0.387334 -0.0988851 -0.409999
-0.378101 -0.095459 -0.413865
-0.390968 -0.0928344 -0.415363
-0.381602 -0.0909957 -0.418245
-0.386941 -0.102613 -0.410172
-0.386509 -0.102566 -0.409854
-0.147836 -0.419023 -0.142629
-0.385685 -0.112432 -0.410728
-0.38466 -0.112294 -0.410223
-0.147366 -0.424134 -0.145284
-0.152234 -0.43038 -0.140512
-0.150462 -0.429918 -0.142535
-0.150276 -0.434783 -0.144384
-0.375418 -0.10217 -0.409525
-0.147037 -0.429 -0.146809
0.0646333 0.271503 0.461911
-0.145991 -0.43373 -0.148466
-0.137866 -0.418769 -0.108971
-0.133083 -0.419243 -0.111074
-0.138053 0.295165 0.12392
-0.13722 0.297529 0.126898
-0.161798 -0.406686 -0.0766787
-0.161104 -0.401371 -0.0786988
-0.371078 -0.109993 -0.409608
-0.159892 -0.406237 -0.0782365
-0.158753 -0.410581 -0.0779856
-0.373883 -0.130198 -0.394295
-0.365711 -0.124188 -0.397924
-0.407104 -0.165596 -0.422878
-0.392015 -0.15512 -0.397074
-0.392171 -0.154894 -0.39732
-0.386568 -0.16549 -0.389639
-0.156172 -0.405316 -0.0818471
-0.382611 -0.156236 -0.401249
-0.377585 -0.162063 -0.392645
-0.379118 -0.163126 -0.391964
-0.157235 -0.400453 -0.0819734
-0.155103 -0.410181 -0.081705
-0.154164 -0.415651 -0.0802604
-0.383321 -0.0901282 -0.433452
-0.379996 -0.0995169 -0.434926
-0.388198 -0.0903073 -0.442121
-0.379924 -0.0902539 -0.424126
-0.375166 -0.0993472 -0.426235
0.0680123 0.271824 0.465368
-0.152601 -0.404373 -0.0861052
-0.153268 -0.399476 -0.085756
-0.152016 -0.408622 -0.0864393
-0.149947 -0.398611 -0.0895385
-0.14958 -0.403477 -0.0909768
-0.149126 -0.409525 -0.0930337
-0.373698 -0.100755 -0.416053
-0.372299 -0.102541 -0.427508
-0.376138 -0.103578 -0.436639
-0.150639 -0.414063 -0.0867322
-0.368893 -0.105244 -0.418185
-0.366567 -0.107648 -0.430051
-0.371168 -0.107771 -0.438846
-0.363574 -0.107859 -0.420546
-0.149601 -0.419202 -0.083089
-0.142917 0.296599 0.126094
-0.372528 -0.105087 -0.411154
0.0656517 0.261637 0.461461
-0.371473 -0.104669 -0.414224
-0.148581 -0.41373 -0.09342
-0.370009 -0.107557 -0.412272
-0.147826 -0.418498 -0.0882966
-0.144431 0.293795 0.121335
-0.146989 -0.417973 -0.0932559
-0.157445 -0.415965 -0.0772586
-0.155926 -0.420831 -0.0761044
0.0704957 0.26181 0.470146
0.0711822 0.266094 0.469841
-0.147775 0.296212 0.127347
-0.149069 0.293984 0.123394
-0.152051 -0.419913 -0.0793661
-0.144542 -0.428434 -0.0827463
-0.144868 -0.422481 -0.089475
-0.142952 -0.427802 -0.0873848
-0.142995 -0.433029 -0.0850217
-0.142049 -0.432668 -0.087618
0.0752514 0.261964 0.478868
0.0756 0.263787 0.478714
-0.143124 -0.438096 -0.0849632
-0.141506 -0.437534 -0.0886625
-0.154242 -0.425926 -0.0746853
-0.152307 0.295404 0.129182
-0.153519 0.293082 0.125369
-0.152838 -0.430562 -0.0736832
-0.149756 -0.426149 -0.0771034
-0.14831 -0.429525 -0.0769798
-0.151593 -0.435428 -0.0731454
-0.1506 -0.44029 -0.0731762
-0.147251 -0.434359 -0.0772778
-0.147038 -0.440067 -0.0777367
0.0785247 0.26181 0.488251
0.0802047 0.268945 0.487503
0.0536698 0.239 0.466786
0.0613594 0.246389 0.463369
-0.150769 0.292189 0.118731
-0.144577 -0.433586 -0.0813215
-0.144189 -0.438451 -0.0827162
-0.155225 0.291328 0.12071
-0.146545 -0.397986 -0.0942313
-0.148203 -0.403043 -0.0935502
-0.146857 -0.402559 -0.0968335
-0.147362 -0.406777 -0.0995433
-0.143886 -0.398967 -0.100885
-0.145624 -0.402094 -0.100113
-0.157053 0.290278 0.116105
-0.143565 -0.396773 -0.0991425
0.0588203 0.239235 0.475335
0.0653406 0.246606 0.472437
-0.366778 -0.108843 -0.414917
0.0636979 0.251154 0.462332
-0.357318 -0.112665 -0.423322
-0.356259 -0.125583 -0.402121
-0.35195 -0.116132 -0.414573
-0.352355 -0.127353 -0.403854
-0.348465 -0.126234 -0.409706
-0.34627 -0.116503 -0.449897
-0.346497 -0.121978 -0.428124
-0.337628 -0.119998 -0.432063
-0.35169 -0.115478 -0.42582
-0.345352 -0.125074 -0.417798
-0.345144 -0.124395 -0.426204
0.0673421 0.251079 0.471548
-0.335772 -0.122553 -0.429074
-0.390782 -0.106727 -0.365127
-0.389464 -0.100142 -0.365713
-0.391186 -0.106237 -0.372431
-0.390412 -0.116729 -0.365289
-0.390757 -0.111103 -0.373732
-0.384867 -0.0954244 -0.367755
-0.381621 -0.0993629 -0.374804
-0.386971 -0.105319 -0.374928
-0.382216 -0.104398 -0.376208
-0.382593 -0.0945035 -0.374661
-0.391109 -0.113869 -0.375815
-0.386813 -0.11208 -0.377723
-0.387064 -0.115051 -0.37967
-0.392487 -0.115968 -0.379896
-0.382682 -0.11413 -0.381791
-0.383326 -0.108437 -0.379414
-0.147705 -0.412605 -0.0991869
-0.147196 -0.412291 -0.102132
-0.15201 0.308445 0.148345
-0.152464 0.30683 0.146568
-0.38674 -0.110185 -0.376674
-0.385971 -0.106237 -0.360685
-0.384214 -0.107029 -0.346373
-0.385105 -0.102113 -0.356813
-0.38073 -0.106234 -0.348882
-0.385092 -0.115965 -0.363241
-0.38143 -0.111492 -0.347608
-0.379783 -0.1111 -0.349014
-0.379607 -0.116129 -0.348722
-0.380561 -0.0953647 -0.358832
-0.388286 -0.0965057 -0.361366
-0.379068 -0.104351 -0.369711
-0.379664 -0.0946669 -0.365925
-0.371783 -0.102648 -0.351893
-0.372486 -0.104628 -0.351232
-0.372691 -0.0995295 -0.352487
-0.376196 -0.105313 -0.350657
-0.37426 -0.0946638 -0.353754
-0.376937 -0.113991 -0.370612
-0.145833 -0.417222 -0.100473
-0.375897 -0.109339 -0.350065
-0.376528 -0.115516 -0.349784
-0.38768 -0.126244 -0.3665
-0.392617 -0.116773 -0.380562
-0.387793 -0.119995 -0.382535
-0.392796 -0.120834 -0.382858
-0.387356 -0.124964 -0.382461
-0.39164 -0.1257 -0.382523
-0.156272 0.307528 0.150734
-0.382199 -0.118995 -0.38297
-0.38103 -0.123861 -0.382603
-0.382644 -0.1328 -0.390404
-0.391964 -0.132168 -0.386266
-0.383539 -0.125697 -0.364277
-0.38014 -0.130826 -0.359012
-0.378623 -0.135425 -0.357737
-0.23399 -0.390863 -0.38051
-0.23532 -0.391307 -0.377737
-0.235706 -0.393758 -0.379748
-0.375377 -0.123858 -0.369872
-0.378208 -0.118763 -0.349038
-0.37415 -0.13435 -0.361671
-0.37143 -0.133586 -0.365516
-0.378334 -0.0940729 -0.370656
-0.378035 -0.0990517 -0.370788
-0.37933 -0.103943 -0.375629
-0.378725 -0.10559 -0.381315
-0.378847 -0.108343 -0.382874
-0.239354 -0.395902 -0.388962
-0.378426 -0.113209 -0.384193
-0.37338 -0.107325 -0.382677
-0.232665 -0.38976 -0.391934
-0.373619 -0.112288 -0.385356
-0.37671 -0.105621 -0.376792
-0.156839 0.303548 0.147603
-0.153569 0.303074 0.14233
-0.155566 0.298673 0.137113
-0.142232 -0.396355 -0.10162
-0.142913 -0.423279 -0.0958947
-0.13835 -0.425963 -0.100998
-0.140204 -0.426583 -0.0970969
-0.377713 -0.109063 -0.370929
-0.37525 -0.108343 -0.374774
-0.142104 -0.427394 -0.0908354
-0.141024 -0.426884 -0.0950315
-0.13669 -0.431357 -0.0987855
-0.140665 -0.432134 -0.0914738
-0.139574 -0.43175 -0.0940339
-0.374064 -0.113209 -0.374368
-0.374009 -0.107881 -0.377991
-0.371641 -0.112369 -0.379845
-0.139954 -0.437024 -0.0917884
-0.13861 -0.436613 -0.0941276
-0.134807 -0.435569 -0.0991664
-0.135203 -0.425335 -0.104846
-0.0588187 0.388572 0.358301
-0.131073 -0.424125 -0.108587
-0.157831 0.299613 0.143535
-0.133092 -0.429908 -0.103411
-0.131642 -0.434774 -0.102412
-0.129147 -0.428267 -0.107296
-0.159225 0.297557 0.139437
-0.127851 -0.433856 -0.105863
-0.173155 -0.445165 -0.126244
-0.172298 -0.450311 -0.126244
-0.169185 -0.444247 -0.129292
-0.168376 -0.449113 -0.129736
-0.364873 -0.096556 -0.382285
-0.367431 -0.0914043 -0.380915
-0.366565 -0.0909894 -0.384378
-0.367412 -0.095481 -0.375611
-0.366878 -0.0917029 -0.375743
-0.168723 -0.454362 -0.127769
-0.365586 -0.101544 -0.37594
-0.366701 -0.0986085 -0.37582
-0.362908 -0.100718 -0.380675
-0.167146 -0.453976 -0.129233
-0.371216 -0.111929 -0.384648
-0.166413 -0.456575 -0.128794
-0.360197 -0.105341 -0.378604
-0.171006 -0.454897 -0.125939
-0.368298 -0.0986085 -0.354581
-0.36963 -0.0937428 -0.355315
-0.367109 -0.104376 -0.354101
-0.169756 -0.459762 -0.12539
-0.163501 0.290756 0.151472
-0.160473 0.296768 0.150127
-0.365538 -0.0972632 -0.360105
-0.36489 -0.0925924 -0.359624
-0.365715 -0.102786 -0.360005
-0.365573 -0.102556 -0.3627
-0.165105 -0.458678 -0.129036
-0.16553 -0.443327 -0.133049
-0.364296 -0.107491 -0.36114
-0.365199 -0.108132 -0.354815
-0.363227 -0.112765 -0.35569
-0.362593 -0.111766 -0.36085
-0.164887 -0.448192 -0.133867
-0.36774 -0.0973355 -0.369942
-0.365739 -0.0921744 -0.370763
-0.36611 -0.0974141 -0.365248
-0.364194 -0.0919764 -0.3661
-0.169052 0.29509 0.140992
-0.366711 -0.102163 -0.370397
-0.365748 -0.102377 -0.365408
-0.162432 -0.44216 -0.136109
-0.165125 0.305686 0.154772
-0.163282 -0.447784 -0.135603
-0.161211 -0.447274 -0.137579
-0.36357 -0.107026 -0.372025
-0.364148 -0.107086 -0.366117
-0.360726 -0.111832 -0.367872
-0.163669 -0.453058 -0.133392
-0.35798 -0.110251 -0.37402
-0.162153 -0.457924 -0.132243
-0.377776 -0.118074 -0.384997
-0.376574 -0.12294 -0.384557
-0.373024 -0.117153 -0.386284
-0.372318 -0.122019 -0.38696
-0.376171 -0.118822 -0.371612
-0.373245 -0.118074 -0.374791
-0.372587 -0.123075 -0.373773
-0.160235 -0.452332 -0.136996
-0.370672 -0.117219 -0.380141
-0.369056 -0.121535 -0.379968
-0.158509 -0.457003 -0.136026
-0.364993 -0.131078 -0.37566
-0.369959 -0.116707 -0.385205
-0.368076 -0.121356 -0.38604
-0.168798 -0.464628 -0.125499
-0.361093 -0.129946 -0.389708
-0.168062 -0.469491 -0.126109
-0.236962 -0.39907 -0.411694
-0.236895 -0.403684 -0.411838
-0.235677 -0.399099 -0.40697
-0.228407 -0.390926 -0.399241
-0.360262 -0.117949 -0.357255
-0.230612 -0.389792 -0.40368
-0.355009 -0.11473 -0.369414
-0.35837 -0.116349 -0.363727
-0.163084 0.295131 0.129616
-0.232989 -0.388999 -0.402625
-0.355161 -0.121469 -0.35945
-0.164555 -0.463707 -0.127933
-0.0529736 0.389666 0.371974
-0.352693 -0.118131 -0.365783
-0.350621 -0.120815 -0.362369
-0.163462 -0.468573 -0.127737
-0.383726 -0.112017 -0.345906
-0.388809 -0.108073 -0.3431
-0.38476 -0.107152 -0.345967
-0.382865 -0.116883 -0.346234
-0.371283 -0.112325 -0.330443
-0.373393 -0.116528 -0.329506
-0.372087 -0.115962 -0.333949
-0.167114 -0.474356 -0.12624
-0.165803 -0.479222 -0.125555
-0.364409 -0.0988065 -0.333498
-0.368432 -0.105423 -0.331711
-0.368095 -0.104049 -0.342969
-0.371901 -0.115387 -0.341003
-0.369069 -0.106718 -0.34768
-0.360581 -0.0977033 -0.324363
-0.370064 -0.116666 -0.320149
-0.381858 -0.121749 -0.346233
-0.380391 -0.126614 -0.345196
-0.377361 -0.120828 -0.348094
-0.375632 -0.122032 -0.344763
-0.378001 -0.126313 -0.343711
-0.37448 -0.120139 -0.340469
-0.377226 -0.126567 -0.338637
-0.232662 -0.388116 -0.407514
-0.374651 -0.126866 -0.328945
-0.162201 -0.473438 -0.127164
-0.366776 -0.131147 -0.332441
-0.374388 -0.136519 -0.333892
-0.368513 -0.13529 -0.336699
-0.160634 -0.478313 -0.125952
-0.167046 0.294801 0.120541
-0.160556 -0.462431 -0.131337
-0.363996 -0.127834 -0.333676
-0.365114 -0.130421 -0.338169
-0.365634 -0.134501 -0.340471
-0.156763 -0.461868 -0.134361
-0.362205 -0.123691 -0.340026
-0.36285 -0.128654 -0.344746
-0.360763 -0.123132 -0.335112
-0.155857 -0.464355 -0.133479
-0.361467 -0.133407 -0.34537
-0.371269 -0.126995 -0.319612
-0.366691 -0.116798 -0.310812
-0.367686 -0.127083 -0.310368
-0.363889 -0.131845 -0.322888
-0.360433 -0.130097 -0.31429
-0.361902 -0.131716 -0.318353
-0.35825 -0.122808 -0.330811
-0.356162 -0.123848 -0.326596
-0.159181 -0.467652 -0.130083
-0.154948 -0.466731 -0.13254
-0.157572 -0.472517 -0.128727
-0.360996 -0.128975 -0.324172
0.0841051 0.281562 0.506148
-0.360365 -0.130195 -0.319035
-0.358024 -0.127507 -0.320075
-0.156583 -0.47517 -0.127737
-0.35625 -0.126146 -0.315445
-0.35427 -0.123641 -0.321742
-0.353498 -0.123151 -0.316668
-0.155642 -0.47738 -0.126647
-0.15266 -0.472238 -0.129952
-0.363333 -0.102949 -0.345423
-0.354497 -0.102427 -0.337617
-0.357174 -0.0918129 -0.337298
-0.364181 -0.108324 -0.34985
-0.167012 0.297077 0.13136
-0.361599 -0.113256 -0.345578
-0.361633 -0.109632 -0.345563
-0.362483 -0.113202 -0.348286
-0.150377 -0.476462 -0.126779
-0.0512109 0.390929 0.351701
-0.157861 -0.441488 -0.139755
-0.362878 -0.113108 -0.350427
-0.157112 -0.446353 -0.140334
-0.35858 -0.113209 -0.339401
-0.346921 -0.0934034 -0.341264
-0.350725 -0.090323 -0.348396
-0.356632 -0.0937303 -0.326117
-0.153717 -0.440567 -0.14241
-0.350529 -0.112624 -0.328823
-0.348525 -0.110638 -0.328072
-0.354006 -0.112929 -0.332697
-0.152826 -0.445432 -0.142671
-0.155961 -0.451219 -0.140009
-0.341806 -0.101661 -0.333593
-0.154701 -0.455428 -0.139134
-0.336207 -0.112099 -0.325847
-0.361991 -0.118376 -0.345403
-0.15163 -0.450298 -0.142245
-0.150245 -0.454827 -0.141235
-0.362135 -0.118021 -0.350382
-0.362421 -0.123506 -0.345211
-0.361101 -0.122849 -0.350821
-0.149673 -0.439649 -0.14529
-0.358468 -0.122013 -0.355766
-0.148624 -0.444515 -0.145195
-0.360699 -0.118524 -0.340559
-0.145691 -0.438728 -0.148312
-0.169897 0.297309 0.121805
-0.358546 -0.118496 -0.336097
-0.357145 -0.114183 -0.33672
-0.144507 -0.443594 -0.147912
-0.147319 -0.449377 -0.144523
-0.145794 -0.454042 -0.143261
-0.143115 -0.448459 -0.147043
-0.142338 -0.453599 -0.144944
-0.172939 0.298849 0.133991
-0.152637 -0.460947 -0.137056
-0.150921 -0.465033 -0.135097
-0.148233 -0.460026 -0.139127
-0.146834 -0.463267 -0.137486
-0.360047 -0.127796 -0.3496
-0.358015 -0.132976 -0.347436
-0.355745 -0.126684 -0.353533
-0.353587 -0.131999 -0.349426
-0.146032 -0.464892 -0.136437
-0.148103 -0.470685 -0.131544
-0.177399 0.301405 0.125136
-0.351963 -0.126108 -0.355441
-0.146426 -0.475183 -0.126829
-0.143499 -0.469242 -0.132759
-0.349355 -0.130826 -0.350841
-0.141385 -0.471543 -0.129068
-0.347788 -0.125052 -0.356963
-0.143733 -0.459109 -0.14098
-0.344875 -0.128481 -0.353
-0.142447 -0.462003 -0.139433
-0.343859 -0.129902 -0.351375
-0.355715 -0.118323 -0.331937
-0.354878 -0.11567 -0.332309
-0.35217 -0.11793 -0.327099
-0.1392 -0.458188 -0.142761
-0.349939 -0.118477 -0.323666
-0.345621 -0.117235 -0.320166
-0.346589 -0.113737 -0.325155
-0.13813 -0.460331 -0.14135
-0.141357 -0.463971 -0.137895
-0.13559 -0.463166 -0.137724
-0.139647 -0.466574 -0.135258
-0.37806 -0.146756 -0.349097
-0.376141 -0.145156 -0.356682
-0.376761 -0.150871 -0.349239
-0.373522 -0.154884 -0.355317
-0.375503 -0.155664 -0.349614
-0.369704 -0.137914 -0.363644
-0.368178 -0.143317 -0.362726
-0.3663 -0.153046 -0.36303
-0.367297 -0.14818 -0.363009
-0.380843 -0.173247 -0.380361
-0.376946 -0.172546 -0.371257
-0.3788 -0.173448 -0.375851
-0.376529 -0.16278 -0.390603
-0.37664 -0.168818 -0.382228
-0.137431 -0.468805 -0.130438
-0.373092 -0.164801 -0.383804
-0.374768 -0.170129 -0.377642
-0.3727 -0.170465 -0.373142
-0.369741 -0.166923 -0.377244
-0.372834 -0.168108 -0.378501
-0.37088 -0.161146 -0.352283
-0.373239 -0.170745 -0.362068
-0.369307 -0.170242 -0.352979
-0.36808 -0.16416 -0.353525
-0.363663 -0.162777 -0.361625
-0.364388 -0.168658 -0.365998
-0.357881 -0.140234 -0.379728
-0.353628 -0.147586 -0.381615
-0.364408 -0.143801 -0.365994
-0.36182 -0.141479 -0.372384
-0.13331 -0.464971 -0.132655
-0.363119 -0.147206 -0.366311
-0.360133 -0.151553 -0.36861
-0.139138 -0.472913 -0.124648
-0.143382 -0.475705 -0.12415
-0.137539 -0.474325 -0.11994
-0.1332 -0.472395 -0.111032
-0.13634 -0.475632 -0.109079
-0.135494 -0.474325 -0.115431
-0.35304 -0.149368 -0.38112
-0.13474 -0.469044 -0.126602
-0.351453 -0.160168 -0.382578
-0.133034 -0.469959 -0.121941
-0.350427 -0.159099 -0.379769
-0.377886 -0.141821 -0.338341
-0.37778 -0.146426 -0.343805
-0.376 -0.14647 -0.339177
-0.373345 -0.138659 -0.33494
-0.372258 -0.141064 -0.335546
-0.131182 -0.465653 -0.128182
-0.371647 -0.145964 -0.335955
-0.368263 -0.14025 -0.337153
-0.129097 -0.466096 -0.12369
-0.131582 -0.468494 -0.122586
-0.367051 -0.145153 -0.336209
-0.377837 -0.151477 -0.343778
-0.376168 -0.151546 -0.339101
-0.13054 -0.46916 -0.117631
-0.129812 -0.468683 -0.113444
-0.37144 -0.150908 -0.335715
-0.368023 -0.156377 -0.332174
-0.363881 -0.150066 -0.333948
-0.127159 -0.465681 -0.119133
-0.364604 -0.139366 -0.340419
-0.125454 -0.463192 -0.114363
-0.363504 -0.142302 -0.339309
-0.362618 -0.144232 -0.338213
-0.360494 -0.138445 -0.343152
-0.359062 -0.141353 -0.341281
-0.357944 -0.143311 -0.339675
-0.360169 -0.148595 -0.33473
-0.143831 -0.443782 -0.0845854
-0.141029 -0.442399 -0.0898544
-0.356293 -0.14575 -0.337093
-0.361469 -0.154957 -0.329639
-0.357839 -0.15182 -0.330987
-0.355692 -0.154429 -0.327365
-0.143994 -0.448312 -0.0851213
-0.354077 -0.148661 -0.333459
-0.14022 -0.44718 -0.0913688
-0.144871 -0.453573 -0.0841847
-0.143102 -0.453048 -0.0870682
-0.351329 -0.152948 -0.327733
-0.145345 -0.458744 -0.0835721
-0.142541 -0.457914 -0.0880716
-0.369451 -0.164616 -0.350682
-0.139949 -0.452039 -0.0918025
-0.369972 -0.161171 -0.331016
-0.139598 -0.457084 -0.0922599
-0.365283 -0.161322 -0.328165
-0.235625 -0.394167 -0.406871
-0.23524 -0.394337 -0.403803
-0.366492 -0.165904 -0.327143
-0.237128 -0.394063 -0.411621
-0.363375 -0.164974 -0.323109
-0.238288 -0.389301 -0.408641
-0.359787 -0.159411 -0.324703
-0.36089 -0.16421 -0.318795
-0.362438 -0.165895 -0.318108
-0.149869 -0.445156 -0.0737976
-0.358805 -0.165468 -0.313684
-0.35706 -0.159854 -0.321715
-0.35455 -0.16262 -0.316193
-0.367244 -0.1711 -0.326807
-0.364838 -0.171018 -0.322458
-0.149334 -0.450022 -0.0748597
-0.147186 -0.444354 -0.0782208
-0.148167 -0.449632 -0.0773042
-0.146517 -0.449104 -0.0805034
-0.150257 -0.455519 -0.0709578
-0.148528 -0.45479 -0.0765816
-0.149064 -0.460312 -0.0714865
-0.148038 -0.459706 -0.0770615
-0.146132 -0.453966 -0.081904
-0.352817 -0.157625 -0.322381
-0.3517 -0.158823 -0.320423
-0.35035 -0.160275 -0.318058
-0.348652 -0.155079 -0.324231
-0.346185 -0.157892 -0.319825
-0.145291 -0.463415 -0.0841652
-0.14666 -0.469063 -0.0833872
-0.145088 -0.468563 -0.0863529
-0.148246 -0.474067 -0.0831345
-0.148097 -0.479074 -0.0875014
-0.355711 -0.137528 -0.344367
-0.354875 -0.138936 -0.343141
-0.352415 -0.142808 -0.339405
-0.145174 -0.473583 -0.0892474
-0.35074 -0.1366 -0.34491
-0.1455 -0.478295 -0.0918157
-0.348862 -0.141479 -0.340078
-0.142045 -0.46278 -0.089222
-0.141808 -0.467645 -0.0909576
-0.34649 -0.134155 -0.346864
-0.140275 -0.462286 -0.0916407
-0.138742 -0.461859 -0.0937714
-0.345384 -0.135686 -0.345086
-0.343851 -0.137798 -0.342618
-0.342261 -0.13198 -0.348743
-0.339002 -0.134711 -0.344952
-0.138452 -0.466725 -0.0953855
-0.349681 -0.147193 -0.334124
-0.34699 -0.149673 -0.330387
-0.138525 -0.471596 -0.0978306
-0.142315 -0.47716 -0.0962442
-0.138699 -0.47661 -0.102788
-0.345366 -0.144053 -0.336527
-0.141919 -0.472511 -0.0934713
-0.342363 -0.146347 -0.33273
-0.344232 -0.152024 -0.326542
-0.340409 -0.149475 -0.327892
-0.337993 -0.151336 -0.323759
-0.3409 -0.140413 -0.339024
-0.33719 -0.138062 -0.340158
-0.33458 -0.139671 -0.336217
-0.33879 -0.143827 -0.334029
-0.148076 -0.465147 -0.0719243
-0.147709 -0.464333 -0.0775843
-0.0723889 0.42139 0.392701
-0.0804735 0.414874 0.39629
-0.0733042 0.414604 0.387477
-0.336105 -0.145458 -0.330168
-0.148092 -0.469773 -0.0773338
-0.147683 -0.469484 -0.0802079
-0.147687 -0.470103 -0.0720962
-0.334154 -0.147397 -0.325252
-0.33253 -0.141771 -0.331391
-0.330562 -0.13975 -0.326304
-0.332507 -0.145002 -0.325983
-0.342066 -0.15491 -0.321737
-0.362056 -0.0942457 -0.388158
-0.365483 -0.0905871 -0.387197
-0.363694 -0.0900684 -0.389903
-0.358069 -0.0942395 -0.390571
-0.360184 -0.0887043 -0.394793
-0.35912 -0.0997495 -0.384588
-0.149121 -0.475026 -0.0768758
-0.354902 -0.0990831 -0.386718
0.0997992 0.326682 0.478793
0.10461 0.332343 0.476655
0.100263 0.327606 0.467751
-0.356519 -0.104945 -0.380673
-0.352022 -0.103741 -0.382313
0.101084 0.327836 0.466613
-0.356255 -0.0888111 -0.397397
-0.353328 -0.0933216 -0.392906
-0.068249 0.357505 0.223254
-0.0788155 0.356068 0.222207
-0.072116 0.357505 0.214544
-0.139806 -0.442035 -0.0918528
-0.137856 -0.441478 -0.0946977
-0.351383 -0.0888803 -0.398875
-0.352831 -0.0873087 -0.401403
-0.349177 -0.0921555 -0.394033
-0.137199 -0.446344 -0.0954835
-0.350772 -0.097939 -0.387985
-0.34633 -0.0948681 -0.390283
-0.134327 -0.440561 -0.0987383
-0.344705 -0.0970369 -0.387634
-0.132911 -0.445256 -0.0999921
-0.347839 -0.101158 -0.384194
-0.343718 -0.0983508 -0.386024
-0.136578 -0.45121 -0.0963536
-0.353549 -0.109402 -0.376061
-0.135985 -0.456075 -0.0972833
-0.349386 -0.107224 -0.378089
-0.132995 -0.450308 -0.100291
-0.348313 -0.108607 -0.376317
-0.13314 -0.455321 -0.100687
-0.346614 -0.10282 -0.382212
-0.345232 -0.104615 -0.379934
-0.342626 -0.107727 -0.375718
-0.341117 -0.101896 -0.38172
-0.0630454 0.331557 0.247714
-0.0712187 0.335515 0.24051
-0.0672654 0.33272 0.238756
-0.338588 -0.104775 -0.377466
-0.068397 0.33527 0.25009
-0.132436 -0.440095 -0.100543
-0.335944 -0.106803 -0.373423
-0.355069 -0.12807 -0.400601
-0.350994 -0.112938 -0.371956
-0.346816 -0.110465 -0.373811
-0.130563 -0.43964 -0.102249
-0.349966 -0.114391 -0.370317
-0.348348 -0.116622 -0.367713
-0.345093 -0.119209 -0.363961
-0.343892 -0.113476 -0.369832
-0.129783 -0.444505 -0.10276
-0.341203 -0.11781 -0.364592
-0.0704093 0.336206 0.233299
-0.071719 0.345488 0.24073
-0.126746 -0.438719 -0.105641
-0.125946 -0.443584 -0.106108
-0.340157 -0.110722 -0.371351
-0.338688 -0.112549 -0.368895
-0.337577 -0.11402 -0.367078
-0.129216 -0.449371 -0.10375
-0.333648 -0.110106 -0.368823
-0.335358 -0.112036 -0.368064
-0.347088 -0.0870887 -0.400783
-0.348293 -0.0863909 -0.403172
-0.344696 -0.0893015 -0.396427
-0.344732 -0.0858785 -0.401829
-0.340502 -0.0869221 -0.398289
-0.34252 -0.0852185 -0.402042
-0.0716816 0.344668 0.251549
-0.342602 -0.0918192 -0.392883
-0.12879 -0.454237 -0.105057
-0.339638 -0.0960971 -0.387647
-0.125379 -0.44845 -0.107097
-0.33798 -0.0903293 -0.393919
-0.124375 -0.453158 -0.109159
-0.335423 -0.0930545 -0.389708
-0.135036 -0.460818 -0.0989797
-0.132093 -0.46002 -0.102774
-0.33609 -0.084527 -0.400303
-0.135326 -0.465002 -0.09941
-0.333875 -0.0869944 -0.395815
-0.331973 -0.086372 -0.391241
-0.332887 -0.0897101 -0.390835
-0.131842 -0.464886 -0.104475
-0.332382 -0.0841529 -0.396478
-0.331584 -0.0844012 -0.391415
-0.333432 -0.0949655 -0.385174
-0.0715675 0.345938 0.235223
-0.331414 -0.0929979 -0.380654
-0.332035 -0.0954024 -0.380377
-0.329322 -0.0934757 -0.376165
-0.330109 -0.0954182 -0.375815
-0.327265 -0.0955219 -0.372487
-0.337005 -0.0989197 -0.383587
-0.334648 -0.100978 -0.379209
-0.0702141 0.349775 0.24006
-0.332271 -0.101246 -0.374854
-0.068639 0.355669 0.246353
-0.0764301 0.353528 0.252646
-0.330154 -0.101412 -0.370377
-0.33185 -0.106272 -0.369623
-0.135271 -0.470669 -0.102477
-0.135652 -0.473225 -0.104526
-0.331772 -0.084857 -0.385913
-0.331843 -0.0899081 -0.385881
-0.33151 -0.0845458 -0.38935
-0.330738 -0.085055 -0.380955
-0.330929 -0.0901344 -0.380869
-0.326474 -0.0837034 -0.377614
-0.32571 -0.0894649 -0.377768
-0.133198 -0.470072 -0.105616
-0.132071 -0.468909 -0.106867
-0.322582 -0.0943086 -0.37379
-0.322717 -0.0836249 -0.381533
-0.322102 -0.0884905 -0.382417
-0.320469 -0.093548 -0.380213
-0.0731992 0.327339 0.19805
-0.0769867 0.326003 0.188897
-0.128479 -0.459102 -0.106625
-0.128739 -0.463012 -0.107894
-0.124901 -0.455497 -0.109303
-0.126681 -0.458646 -0.108512
-0.124887 -0.458181 -0.110522
-0.317934 -0.0944469 -0.375804
-0.0686588 0.324322 0.206871
-0.337935 -0.0921021 -0.345254
-0.340415 -0.0891412 -0.34946
-0.328457 -0.0971092 -0.350027
-0.331441 -0.0862903 -0.358297
-0.21029 -0.490647 -0.142611
-0.20705 -0.485961 -0.159502
-0.327546 -0.101953 -0.35051
-0.329561 -0.109638 -0.348968
-0.328843 -0.106608 -0.355852
-0.205415 -0.489022 -0.155042
-0.334197 -0.0988694 -0.339989
-0.330962 -0.106577 -0.337032
-0.0773385 0.329147 0.178218
-0.0804351 0.322703 0.179594
-0.208876 -0.49 -0.147856
-0.207956 -0.489613 -0.150827
-0.343273 -0.122733 -0.35913
-0.342265 -0.124119 -0.357507
-0.340624 -0.126429 -0.354888
-0.339067 -0.120419 -0.360998
-0.337205 -0.123198 -0.358098
-0.33634 -0.124568 -0.35679
-0.338872 -0.128981 -0.352131
-0.333868 -0.128469 -0.353041
-0.206552 -0.492235 -0.148887
-0.334939 -0.117449 -0.362863
-0.0818942 0.329033 0.169406
-0.331528 -0.111543 -0.364347
-0.329617 -0.107193 -0.359779
-0.331119 -0.111989 -0.359111
-0.205171 -0.494479 -0.146822
-0.208296 -0.494457 -0.142375
-0.331252 -0.117056 -0.359051
-0.330836 -0.117801 -0.348401
-0.330767 -0.112545 -0.351055
-0.33043 -0.11737 -0.353111
-0.331128 -0.112407 -0.353689
-0.201465 -0.493005 -0.150206
-0.332351 -0.122274 -0.358501
-0.203841 -0.496296 -0.144673
-0.329337 -0.122528 -0.349065
-0.328959 -0.122277 -0.351515
-0.199397 -0.495362 -0.146646
-0.0765778 0.339384 0.177878
-0.329506 -0.127117 -0.354407
-0.327937 -0.127278 -0.349686
-0.328791 -0.122 -0.354725
-0.212802 -0.492059 -0.12986
-0.211784 -0.49144 -0.135643
-0.211679 -0.496865 -0.130358
-0.210188 -0.496195 -0.135738
-0.329284 -0.11914 -0.327419
-0.329941 -0.116836 -0.337964
-0.329586 -0.123412 -0.338119
-0.330263 -0.118329 -0.340197
-0.329869 -0.123138 -0.342314
-0.328811 -0.12829 -0.338463
-0.328975 -0.128431 -0.34255
-0.32882 -0.129063 -0.328376
-0.328305 -0.128598 -0.33327
-0.0819492 0.339101 0.169428
-0.330681 -0.118184 -0.343052
-0.323889 -0.0952924 -0.363418
-0.326049 -0.0854636 -0.36506
-0.325644 -0.0961317 -0.356408
-0.0799891 0.346123 0.19151
-0.0710517 0.349609 0.188429
-0.328041 -0.101519 -0.365897
-0.329725 -0.106246 -0.365148
-0.326338 -0.102506 -0.361236
-0.324789 -0.096446 -0.367342
-0.324424 -0.100526 -0.362086
-0.208261 -0.502073 -0.132485
-0.205634 -0.499697 -0.137879
-0.324813 -0.100988 -0.356947
-0.202738 -0.504509 -0.133599
-0.316637 -0.0933531 -0.372373
-0.317612 -0.0836217 -0.370036
-0.352948 -0.149293 -0.381917
-0.350818 -0.15893 -0.38286
-0.337955 -0.130242 -0.350655
-0.335114 -0.133517 -0.34578
-0.0709282 0.35934 0.193241
-0.078934 0.357501 0.199187
-0.206439 -0.506046 -0.130234
-0.331173 -0.131213 -0.348248
-0.333156 -0.134758 -0.34195
-0.201293 -0.499307 -0.140336
-0.330964 -0.135811 -0.337505
-0.33146 -0.13346 -0.342703
-0.329402 -0.133451 -0.338199
-0.198765 -0.502409 -0.136091
-0.329544 -0.134309 -0.327301
-0.328645 -0.134114 -0.332019
-0.330745 -0.139181 -0.332185
-0.0878726 0.355659 0.203034
-0.196673 -0.498078 -0.141777
-0.19453 -0.500266 -0.137971
-0.195547 -0.504217 -0.132575
-0.192198 -0.502133 -0.133589
-0.31956 -0.11891 -0.440084
-0.324066 -0.115135 -0.44892
-0.328494 -0.112769 -0.45779
-0.319514 -0.118876 -0.440411
-0.314191 -0.086064 -0.388302
-0.318606 -0.0825656 -0.38608
-0.315303 -0.0817861 -0.388814
-0.310109 -0.0830308 -0.378807
-0.31561 -0.0928344 -0.376835
-0.190016 -0.503321 -0.129488
-0.204847 -0.508887 -0.127972
-0.310632 -0.079853 -0.389898
-0.0900753 0.345674 0.195032
-0.0839477 0.343021 0.18115
-0.311603 -0.332472 -0.660275
-0.30874 -0.325758 -0.661548
-0.315788 -0.33251 -0.669252
-0.312832 -0.325331 -0.670563
-0.317598 -0.342961 -0.668444
-0.311976 -0.341402 -0.676123
-0.30502 -0.331667 -0.655922
-0.323564 -0.348345 -0.611621
-0.308534 -0.340522 -0.618294
-0.312581 -0.340358 -0.627334
-0.314843 -0.345076 -0.634623
-0.312134 -0.347154 -0.606259
-0.203641 -0.510908 -0.126198
-0.297993 -0.344844 -0.602028
-0.303558 -0.339271 -0.631339
-0.306018 -0.343234 -0.638725
-0.29942 -0.339965 -0.622343
-0.294804 -0.336627 -0.635227
-0.29931 -0.333811 -0.644062
-0.306433 -0.34314 -0.640897
-0.29092 -0.335848 -0.626118
-0.282986 -0.335254 -0.607969
-0.309501 -0.344599 -0.67204
-0.308136 -0.346264 -0.669742
-0.306342 -0.358039 -0.646354
-0.314658 -0.364168 -0.648076
-0.306512 -0.357831 -0.64664
-0.308772 -0.355603 -0.650691
-0.308063 -0.352048 -0.659854
-0.304563 -0.349917 -0.663396
-0.302515 -0.351325 -0.659439
-0.202048 -0.513454 -0.123796
-0.306617 -0.353051 -0.657066
-0.299939 -0.353613 -0.654705
-0.304367 -0.354446 -0.652646
-0.301112 -0.352441 -0.656802
-0.301292 -0.356763 -0.64856
-0.304117 -0.357363 -0.647341
-0.200458 -0.507633 -0.12992
-0.299634 -0.359724 -0.644449
-0.303837 -0.360906 -0.642048
-0.300675 -0.358369 -0.646159
-0.299736 -0.356511 -0.64939
-0.298615 -0.355263 -0.652492
-0.298006 -0.355993 -0.651458
-0.297353 -0.35675 -0.650342
-0.298438 -0.357982 -0.647152
-0.0872185 0.347767 0.175994
-0.0820759 0.349153 0.169483
-0.297685 -0.358884 -0.645876
-0.297145 -0.359651 -0.645018
-0.295942 -0.358212 -0.647847
-0.294862 -0.359538 -0.64603
-0.320642 -0.353802 -0.602082
-0.325381 -0.349637 -0.610814
-0.31317 -0.357932 -0.594563
-0.307842 -0.351316 -0.59693
-0.31701 -0.358479 -0.596085
-0.31542 -0.360764 -0.593564
-0.197969 -0.510054 -0.125914
-0.293168 -0.382914 -0.60344
-0.295994 -0.384612 -0.602185
-0.295172 -0.382942 -0.607966
-0.295998 -0.383992 -0.610314
-0.29977 -0.362333 -0.638433
-0.301755 -0.361324 -0.637553
-0.298283 -0.361776 -0.642362
-0.299965 -0.362694 -0.634161
-0.296161 -0.361314 -0.643578
-0.29406 -0.360855 -0.644839
-0.298683 -0.370863 -0.622663
-0.296815 -0.366654 -0.628912
-0.295997 -0.367557 -0.627491
-0.294353 -0.36927 -0.624587
-0.296768 -0.363527 -0.639766
-0.294698 -0.363882 -0.635268
-0.299407 -0.363282 -0.633177
-0.292378 -0.363813 -0.642428
-0.293422 -0.362059 -0.643962
-0.289538 -0.365561 -0.637559
-0.292374 -0.365702 -0.630883
-0.291411 -0.366639 -0.629151
-0.290006 -0.367773 -0.626517
-0.290062 -0.365752 -0.631908
-0.288708 -0.365699 -0.635192
-0.288889 -0.36595 -0.632429
-0.289545 -0.36618 -0.630943
-0.287684 -0.366189 -0.632964
-0.287755 -0.367475 -0.627517
-0.285441 -0.367538 -0.628544
-0.297648 -0.373585 -0.618329
-0.301091 -0.371954 -0.616176
-0.299795 -0.374261 -0.614334
-0.291978 -0.371388 -0.620224
-0.293647 -0.372806 -0.619483
-0.290615 -0.37246 -0.618272
-0.293156 -0.379589 -0.614281
-0.292179 -0.377954 -0.614714
-0.28926 -0.374622 -0.61561
-0.291036 -0.380227 -0.609805
-0.29392 -0.383354 -0.613941
-0.288874 -0.381107 -0.605348
-0.288178 -0.375933 -0.613784
-0.286942 -0.377282 -0.611596
-0.284623 -0.379057 -0.607233
-0.289489 -0.369565 -0.621328
-0.288898 -0.368371 -0.624298
-0.287621 -0.368958 -0.621695
-0.288781 -0.370744 -0.618932
-0.28753 -0.372014 -0.616833
-0.286698 -0.369474 -0.61986
-0.285521 -0.370473 -0.617672
-0.286647 -0.368072 -0.625297
-0.285388 -0.368556 -0.623151
-0.284475 -0.368188 -0.626291
-0.0898261 0.353777 0.172923
-0.194011 -0.506665 -0.127366
-0.283212 -0.368814 -0.624116
-0.0941687 0.34562 0.184176
-0.281002 -0.36997 -0.619677
-0.282113 -0.369358 -0.621893
-0.284439 -0.37174 -0.615827
-0.282122 -0.371055 -0.616496
-0.280019 -0.370759 -0.617832
-0.202549 -0.485361 -0.161501
-0.0988707 0.352815 0.176939
-0.286486 -0.374327 -0.614303
-0.200152 -0.487778 -0.157138
-0.284937 -0.375543 -0.612514
-0.198362 -0.48294 -0.163361
-0.196096 -0.484421 -0.158949
-0.282893 -0.373934 -0.613429
-0.197727 -0.49 -0.152806
-0.281381 -0.376125 -0.610983
-0.280324 -0.377288 -0.609145
-0.1954 -0.492357 -0.148069
-0.280584 -0.373161 -0.614013
0.102172 0.326343 0.488574
0.106067 0.337228 0.486843
0.106968 0.33757 0.4844
-0.193912 -0.485433 -0.154501
-0.195183 -0.487168 -0.153936
-0.192063 -0.486454 -0.149904
-0.278338 -0.372696 -0.614947
-0.279447 -0.374852 -0.612241
-0.278614 -0.375905 -0.610858
0.103875 0.326673 0.497665
0.105113 0.3362 0.498102
-0.277258 -0.374195 -0.613215
-0.276109 -0.375572 -0.611266
-0.321198 -0.370046 -0.58607
-0.309343 -0.369986 -0.586196
-0.318296 -0.37416 -0.58145
-0.306773 -0.377935 -0.582094
-0.314242 -0.379774 -0.574937
-0.313047 -0.381273 -0.572944
-0.303453 -0.383489 -0.577203
-0.305544 -0.378184 -0.554607
-0.303674 -0.379441 -0.555437
-0.305866 -0.379771 -0.556072
-0.189659 -0.486794 -0.145385
-0.191701 -0.492316 -0.144646
-0.187233 -0.487668 -0.141214
-0.188072 -0.49198 -0.140841
-0.105203 0.334811 0.179123
-0.107218 0.333336 0.186149
-0.108525 0.328571 0.181218
-0.308486 -0.384407 -0.564134
-0.303556 -0.388666 -0.566322
-0.301131 -0.387664 -0.573919
-0.300698 -0.388905 -0.556757
-0.296639 -0.38999 -0.515219
-0.300476 -0.392177 -0.513513
-0.298411 -0.391335 -0.519837
-0.286139 -0.386658 -0.54155
-0.291131 -0.388585 -0.539334
-0.291574 -0.382462 -0.549974
-0.294406 -0.377932 -0.554239
-0.296905 -0.368201 -0.555333
-0.291949 -0.387085 -0.528135
-0.295735 -0.390367 -0.526453
-0.293018 -0.389496 -0.531671
-0.287297 -0.388396 -0.518271
-0.282558 -0.387761 -0.530703
-0.284164 -0.387657 -0.535704
-0.279138 -0.384659 -0.522989
-0.184812 -0.491625 -0.13666
-0.290784 -0.343228 -0.604414
-0.278299 -0.342103 -0.600608
-0.298439 -0.36662 -0.579432
-0.290787 -0.350197 -0.582833
-0.29529 -0.347396 -0.591668
-0.192959 -0.494338 -0.144087
-0.292488 -0.36705 -0.560406
-0.281856 -0.355364 -0.565127
-0.293412 -0.366409 -0.570829
-0.285793 -0.354475 -0.573582
0.10399 0.32506 0.509436
0.107367 0.33498 0.507937
-0.29683 -0.376367 -0.580145
-0.190749 -0.497402 -0.139192
-0.187655 -0.498003 -0.135607
-0.112719 0.326359 0.183092
-0.111088 0.327817 0.187444
-0.0822827 0.412746 0.391481
-0.298377 -0.382814 -0.590292
-0.302204 -0.386727 -0.588591
-0.299325 -0.385828 -0.593831
-0.294539 -0.38177 -0.581161
-0.300736 -0.387252 -0.578407
-0.289137 -0.382983 -0.594393
-0.29107 -0.383423 -0.598954
-0.289533 -0.384087 -0.583383
-0.287197 -0.382581 -0.589839
-0.285044 -0.383414 -0.585376
-0.292299 -0.376257 -0.571322
0.103136 0.325045 0.519601
0.111213 0.333852 0.517061
-0.288375 -0.376276 -0.562229
-0.295014 -0.3869 -0.570115
-0.291472 -0.385702 -0.576968
-0.109369 0.332478 0.192615
-0.291931 -0.387092 -0.560648
-0.287647 -0.385121 -0.579617
0.114986 0.342065 0.504551
-0.283202 -0.384159 -0.581579
-0.286503 -0.344941 -0.595572
-0.282056 -0.347415 -0.586712
-0.185946 -0.500033 -0.130948
-0.272974 -0.346673 -0.590744
-0.277683 -0.349471 -0.577816
-0.273492 -0.35318 -0.570109
-0.182309 -0.49247 -0.132564
-0.183849 -0.496975 -0.13188
0.110307 0.345884 0.495791
0.111647 0.335892 0.51687
0.109852 0.345601 0.517665
0.117611 0.347305 0.512906
-0.184573 -0.48663 -0.136978
-0.181897 -0.486492 -0.132748
-0.0975414 0.353821 0.205235
-0.26773 -0.350832 -0.581701
-0.0988678 0.34601 0.198609
-0.263955 -0.352347 -0.573076
-0.28669 -0.382119 -0.6009
-0.284738 -0.381789 -0.596349
-0.285682 -0.382141 -0.598637
-0.284518 -0.381361 -0.601862
-0.282332 -0.380686 -0.602833
-0.283492 -0.381487 -0.599611
-0.282533 -0.381223 -0.597326
-0.28129 -0.380903 -0.600589
-0.280314 -0.380736 -0.598313
-0.282807 -0.381336 -0.591788
-0.280718 -0.381795 -0.587296
-0.278385 -0.380271 -0.593752
-0.278585 -0.380815 -0.588245
-0.276385 -0.380217 -0.589223
-0.277989 -0.379168 -0.604763
-0.275875 -0.379771 -0.600284
-0.107008 0.339818 0.202224
-0.104418 0.342873 0.201073
-0.106406 0.342251 0.204715
-0.273729 -0.377172 -0.606655
-0.271626 -0.377712 -0.60217
-0.273868 -0.379762 -0.595758
-0.271752 -0.380378 -0.591279
-0.272832 -0.379944 -0.593507
-0.271669 -0.379161 -0.596732
-0.269644 -0.377847 -0.597631
-0.270627 -0.379375 -0.594488
-0.269532 -0.379897 -0.592266
-0.200754 -0.515774 -0.121963
-0.195418 -0.513539 -0.121322
-0.196433 -0.515111 -0.120871
-0.268431 -0.37786 -0.594978
-0.26756 -0.377986 -0.593139
-0.105058 0.34727 0.211388
-0.100626 0.352906 0.210222
-0.103036 0.351922 0.21681
-0.279619 -0.382339 -0.585077
-0.279021 -0.383131 -0.582449
-0.277526 -0.381129 -0.586007
-0.276422 -0.381704 -0.583788
-0.275353 -0.380381 -0.586972
-0.274252 -0.380934 -0.58475
-0.194442 -0.514853 -0.119735
-0.272461 -0.382044 -0.582606
-0.270917 -0.3815 -0.586231
-0.270527 -0.381132 -0.588871
-0.199049 -0.519181 -0.119709
-0.200982 -0.521092 -0.11885
-0.271303 -0.381685 -0.584668
-0.26837 -0.380752 -0.590046
-0.198276 -0.52064 -0.11865
-0.266397 -0.3789 -0.590949
-0.196317 -0.523356 -0.115504
-0.265139 -0.380321 -0.588814
-0.288246 -0.387158 -0.551448
-0.105761 0.344221 0.207085
-0.275191 -0.380849 -0.524743
-0.277841 -0.382455 -0.523565
-0.274298 -0.386761 -0.525139
-0.274479 -0.384967 -0.525058
-0.27445 -0.381754 -0.52507
-0.257929 -0.341402 -0.554085
-0.257653 -0.342313 -0.554208
-0.278337 -0.345057 -0.5524
-0.192869 -0.516661 -0.117036
-0.194555 -0.520175 -0.116286
-0.249326 -0.343986 -0.536235
-0.252593 -0.362112 -0.53478
-0.250876 -0.362128 -0.546953
-0.257527 -0.341377 -0.553488
-0.194628 -0.52494 -0.110836
-0.190633 -0.517974 -0.112611
-0.191875 -0.520036 -0.112059
-0.245926 -0.370543 -0.54127
-0.188954 -0.519326 -0.107938
-0.24445 -0.375547 -0.538391
-0.245523 -0.375886 -0.542804
-0.246647 -0.380626 -0.542832
-0.247664 -0.379576 -0.547799
-0.192302 -0.525116 -0.106451
-0.245271 -0.380755 -0.538026
-0.301584 -0.320393 -0.663786
-0.292064 -0.315656 -0.668953
-0.309831 -0.321197 -0.671899
-0.309163 -0.316524 -0.683029
-0.311688 -0.320751 -0.681906
-0.301479 -0.308562 -0.686442
-0.301347 -0.308452 -0.686502
-0.290661 -0.318259 -0.667005
-0.309679 -0.340701 -0.680087
-0.309817 -0.339378 -0.682736
-0.309038 -0.340484 -0.681498
-0.307693 -0.340189 -0.684016
-0.301457 -0.331202 -0.653945
-0.295859 -0.32374 -0.656431
-0.191859 -0.508991 -0.122586
-0.292522 -0.329826 -0.651751
-0.303544 -0.332566 -0.653017
-0.290478 -0.331617 -0.647985
-0.287318 -0.319862 -0.660225
-0.283007 -0.327987 -0.6543
-0.288056 -0.317523 -0.670732
-0.290127 -0.33509 -0.686062
-0.291985 -0.337247 -0.685235
-0.291031 -0.335669 -0.688369
-0.291858 -0.3368 -0.690751
-0.287421 -0.334301 -0.681844
-0.290714 -0.337401 -0.680382
-0.288805 -0.334493 -0.68394
-0.286245 -0.330904 -0.687784
-0.286327 -0.331039 -0.68775
-0.28739 -0.331051 -0.689985
-0.288321 -0.330948 -0.692282
-0.189268 -0.510855 -0.118636
-0.191654 -0.514536 -0.117576
-0.285797 -0.331017 -0.686829
-0.288124 -0.333352 -0.686951
-0.28895 -0.3341 -0.686584
-0.289273 -0.333777 -0.689148
-0.187719 -0.504792 -0.124742
-0.290087 -0.333874 -0.691496
-0.287131 -0.333289 -0.684682
-0.18542 -0.50647 -0.120345
-0.187434 -0.508623 -0.11945
-0.285194 -0.331171 -0.685543
-0.284134 -0.331488 -0.683305
-0.187055 -0.513816 -0.113569
-0.285802 -0.336744 -0.676843
-0.183148 -0.508243 -0.116535
-0.283498 -0.334188 -0.678169
-0.281987 -0.332287 -0.678842
-0.18062 -0.510987 -0.111641
-0.183978 -0.514253 -0.110149
-0.282997 -0.336115 -0.675683
-0.280925 -0.332617 -0.676604
-0.281361 -0.333566 -0.676409
-0.280106 -0.331548 -0.674259
-0.280129 -0.333519 -0.674247
-0.281551 -0.336549 -0.673913
-0.286984 -0.328241 -0.692873
-0.285072 -0.330985 -0.685597
-0.28373 -0.330916 -0.683484
-0.281723 -0.327534 -0.657289
-0.279808 -0.33135 -0.668972
-0.278486 -0.336115 -0.66956
-0.279532 -0.336125 -0.671804
-0.279776 -0.331014 -0.673269
-0.277422 -0.33631 -0.664616
-0.286276 -0.332676 -0.639014
-0.280986 -0.338595 -0.630185
-0.277389 -0.3308 -0.642959
-0.273092 -0.337712 -0.636503
-0.273677 -0.339522 -0.614186
-0.276521 -0.339648 -0.618967
-0.279532 -0.340544 -0.625753
-0.309692 -0.341795 -0.677371
-0.311723 -0.341333 -0.676472
-0.310352 -0.340943 -0.678462
-0.308494 -0.34122 -0.680615
-0.307004 -0.342741 -0.678565
-0.304628 -0.345281 -0.674042
-0.305786 -0.34237 -0.68173
-0.186345 -0.519747 -0.103909
-0.190122 -0.525675 -0.102957
-0.183941 -0.521812 -0.0993289
-0.185641 -0.525031 -0.0985736
-0.304778 -0.34358 -0.679555
-0.304643 -0.341694 -0.684578
-0.181431 -0.524839 -0.0956278
-0.178262 -0.513027 -0.107396
-0.303557 -0.34314 -0.682805
-0.302361 -0.344467 -0.680652
-0.182308 -0.516239 -0.105472
-0.180049 -0.517688 -0.101058
-0.181581 -0.51915 -0.100377
-0.300654 -0.347057 -0.675966
-0.102319 0.34386 0.189834
-0.175913 -0.514966 -0.102895
-0.302416 -0.347902 -0.670038
-0.306965 -0.347647 -0.667746
-0.303522 -0.346733 -0.671987
-0.300087 -0.349166 -0.665383
-0.301165 -0.348744 -0.667614
-0.178869 -0.518795 -0.0989159
-0.301581 -0.347556 -0.67308
-0.103273 0.344768 0.178895
-0.177605 -0.5202 -0.0967248
-0.299284 -0.349326 -0.671157
-0.174902 -0.523934 -0.0930944
-0.298421 -0.349269 -0.674231
-0.174197 -0.517855 -0.0978343
-0.298436 -0.34954 -0.668824
-0.29747 -0.349596 -0.666546
-0.171015 -0.520055 -0.0942335
-0.297317 -0.350171 -0.672031
-0.295246 -0.35053 -0.667533
-0.296267 -0.350432 -0.669786
-0.183725 -0.501256 -0.126516
-0.185276 -0.502724 -0.125827
-0.301002 -0.343923 -0.683906
-0.302627 -0.341807 -0.686301
-0.303581 -0.341751 -0.685502
-0.181602 -0.502444 -0.122728
-0.300022 -0.342754 -0.687083
-0.299469 -0.343508 -0.686188
-0.18003 -0.496503 -0.127975
-0.29753 -0.346148 -0.683051
-0.2987 -0.344592 -0.684962
-0.297044 -0.348798 -0.677443
-0.295824 -0.348339 -0.680684
-0.297962 -0.343187 -0.688315
-0.177553 -0.498697 -0.123839
-0.295967 -0.345381 -0.686115
-0.17522 -0.501143 -0.119085
-0.177341 -0.486033 -0.128477
-0.294549 -0.347783 -0.683884
-0.295143 -0.344335 -0.689249
-0.294088 -0.345186 -0.687269
-0.178591 -0.491263 -0.128797
-0.174272 -0.491131 -0.125911
-0.29233 -0.347437 -0.685128
-0.172425 -0.485364 -0.126119
-0.108048 0.336596 0.198382
-0.17 -0.485009 -0.125284
-0.167781 -0.490082 -0.123172
-0.175818 -0.496142 -0.12461
-0.290766 -0.347893 -0.674775
-0.291321 -0.347541 -0.680942
-0.289979 -0.345221 -0.67529
-0.291741 -0.342515 -0.680652
-0.289404 -0.342603 -0.675579
-0.287923 -0.344869 -0.672974
-0.289425 -0.347833 -0.672826
-0.286798 -0.346114 -0.671286
-0.287441 -0.347632 -0.671
-0.294827 -0.349559 -0.678553
-0.293552 -0.349423 -0.681828
-0.292448 -0.350002 -0.679609
-0.291274 -0.349279 -0.68284
-0.296047 -0.350005 -0.675303
-0.294933 -0.35064 -0.67309
-0.293714 -0.350187 -0.67634
-0.292709 -0.350187 -0.674077
-0.293876 -0.350945 -0.670849
-0.29288 -0.351294 -0.668614
-0.291659 -0.350451 -0.671833
-0.290759 -0.350945 -0.670041
-0.171454 -0.495818 -0.121781
-0.29802 -0.350401 -0.661303
-0.169209 -0.50041 -0.116327
-0.298864 -0.352127 -0.657798
-0.297822 -0.353459 -0.656073
-0.296048 -0.352472 -0.65893
-0.294782 -0.354927 -0.656632
-0.293786 -0.351907 -0.662764
-0.294058 -0.353283 -0.659932
-0.293332 -0.354613 -0.658917
-0.291902 -0.354327 -0.661209
-0.290209 -0.356643 -0.659037
-0.164899 -0.494897 -0.119213
-0.296613 -0.35559 -0.653561
-0.294955 -0.357303 -0.651408
-0.293053 -0.357838 -0.652254
-0.294286 -0.358136 -0.649535
-0.292311 -0.360098 -0.646756
-0.290876 -0.359475 -0.649444
-0.290581 -0.360189 -0.647932
-0.286387 -0.358884 -0.655155
-0.288941 -0.357945 -0.656786
-0.285523 -0.347478 -0.669224
-0.288126 -0.353164 -0.665141
-0.290248 -0.353695 -0.663959
-0.28881 -0.355782 -0.661696
-0.287812 -0.356964 -0.659998
-0.286912 -0.354663 -0.663107
-0.162271 -0.499565 -0.114268
-0.28587 -0.355939 -0.661356
-0.284366 -0.348559 -0.666945
-0.282001 -0.350615 -0.662579
-0.283013 -0.352582 -0.662129
-0.286604 -0.358136 -0.657823
-0.068953 0.367047 0.228663
-0.0728776 0.36518 0.241239
-0.0754437 0.356778 0.231545
-0.285976 -0.358558 -0.656607
-0.284395 -0.357596 -0.658804
-0.283148 -0.358105 -0.656858
-0.279245 -0.352252 -0.657031
-0.277901 -0.351083 -0.653564
-0.278185 -0.352413 -0.653439
-0.279795 -0.357096 -0.652722
-0.27875 -0.35505 -0.653187
-0.179109 -0.504713 -0.11773
-0.176664 -0.507234 -0.113439
-0.172707 -0.503484 -0.115155
-0.174147 -0.510167 -0.109097
-0.172046 -0.512505 -0.105454
-0.170012 -0.506455 -0.111582
-0.167546 -0.511166 -0.106523
-0.169265 -0.515161 -0.100429
-0.166923 -0.517 -0.0965132
-0.164927 -0.513615 -0.102355
-0.162677 -0.515007 -0.0979365
-0.166072 -0.503597 -0.112683
-0.164948 -0.505386 -0.110985
-0.163307 -0.50797 -0.108493
-0.159599 -0.502777 -0.11014
-0.160793 -0.504773 -0.10961
-0.0844877 0.365394 0.215191
-0.160969 -0.510362 -0.104837
-0.157491 -0.504572 -0.106457
-0.154884 -0.504946 -0.101398
-0.157106 -0.509878 -0.100411
-0.158602 -0.511939 -0.0997463
-0.16856 -0.522975 -0.0906656
-0.163863 -0.517575 -0.0760523
-0.164757 -0.523198 -0.0753416
-0.16403 -0.523158 -0.0803764
-0.160482 -0.511245 -0.066407
-0.161247 -0.513222 -0.0660669
-0.162558 -0.512864 -0.0712545
-0.158635 -0.512508 -0.0618095
-0.163277 -0.521721 -0.0651642
-0.163523 -0.523774 -0.0650545
-0.164726 -0.523799 -0.0695113
-0.164127 -0.518443 -0.0702047
-0.16278 -0.518581 -0.0653852
-0.28775 -0.360717 -0.649189
-0.284972 -0.361339 -0.649431
-0.281157 -0.358894 -0.652115
-0.161302 -0.521517 -0.0606235
-0.161622 -0.523796 -0.0604812
-0.0804832 0.355895 0.244618
-0.29241 -0.342376 -0.685047
-0.293043 -0.34209 -0.690183
-0.159259 -0.521712 -0.0561131
-0.159606 -0.523792 -0.0559584
-0.0846109 0.356527 0.235616
-0.160754 -0.518575 -0.0608675
-0.283342 -0.339249 -0.672873
-0.285213 -0.342131 -0.67199
-0.284621 -0.337882 -0.67496
-0.0807237 0.352875 0.25556
-0.156347 -0.513052 -0.058048
-0.158516 -0.518528 -0.0564437
-0.0892839 0.353522 0.248525
-0.151249 -0.483754 -0.0817242
-0.152515 -0.490431 -0.0807834
-0.150948 -0.489865 -0.0846426
-0.233982 -0.404737 -0.396763
-0.234793 -0.404489 -0.401821
-0.084636 0.352152 0.258357
-0.282135 -0.340635 -0.670648
-0.280942 -0.341657 -0.66841
-0.234593 -0.399825 -0.396493
-0.28257 -0.344737 -0.667743
-0.283744 -0.34728 -0.667221
-0.153361 -0.495686 -0.080394
-0.155079 -0.501039 -0.0796427
-0.153485 -0.500514 -0.0828994
-0.281514 -0.345925 -0.665505
-0.282138 -0.347154 -0.665226
-0.235003 -0.399495 -0.401728
-0.28048 -0.346852 -0.663255
-0.27982 -0.342405 -0.666256
-0.280793 -0.344357 -0.665823
-0.0935464 0.35493 0.239583
-0.278697 -0.34309 -0.664047
-0.279252 -0.344247 -0.663799
-0.150671 -0.494979 -0.0867058
-0.280314 -0.337853 -0.671455
-0.281005 -0.338947 -0.67115
-0.151748 -0.499936 -0.0865396
-0.150922 -0.499596 -0.0891176
-0.235635 -0.404247 -0.406864
-0.089448 0.363725 0.226928
-0.243659 -0.391206 -0.397887
-0.279299 -0.338639 -0.669199
-0.15097 -0.489742 -0.0597997
-0.151049 -0.491785 -0.0597642
-0.152074 -0.491996 -0.0635624
-0.155433 -0.498798 -0.0740689
-0.156499 -0.501749 -0.0735946
-0.156028 -0.501435 -0.0766375
-0.154361 -0.496258 -0.0701556
-0.155659 -0.501988 -0.0685504
-0.152585 -0.49673 -0.0644985
-0.150563 -0.496726 -0.0599792
-0.153223 -0.5019 -0.0642147
-0.085249 0.367003 0.214226
-0.0923913 0.373283 0.225903
-0.086996 0.375053 0.215003
-0.150375 -0.501724 -0.0600615
-0.27806 -0.341481 -0.66433
-0.152426 -0.486241 -0.0743068
-0.153679 -0.491087 -0.074849
-0.153255 -0.490783 -0.0778473
-0.1515 -0.485386 -0.0704002
-0.153411 -0.491446 -0.0695502
-0.277746 -0.343879 -0.661762
-0.279398 -0.346975 -0.661378
-0.276583 -0.344033 -0.659568
-0.278143 -0.347151 -0.658876
-0.149479 -0.483349 -0.0658802
-0.150821 -0.486285 -0.065284
-0.150569 -0.48674 -0.0587845
-0.0978274 0.356448 0.23065
-0.0992931 0.36243 0.220463
-0.101558 0.354783 0.221472
-0.154761 -0.496349 -0.0743675
-0.102205 0.371907 0.221754
-0.275693 -0.344137 -0.65777
-0.27713 -0.347145 -0.656616
-0.274481 -0.344225 -0.655082
-0.276232 -0.347044 -0.654306
-0.275589 -0.336345 -0.660011
-0.275545 -0.341374 -0.66003
-0.272825 -0.341226 -0.655818
