-0.103906 -0.200182 -0.186423
0.00530069 0.123325 -0.259146
-0.156352 -0.199661 -0.136787
-0.174235 -0.596052 -0.20713
-0.11061 -0.0909143 -0.0938203
-0.136245 -0.197088 -0.148445
-0.150599 -0.323605 -0.218195
0.278478 0.725313 -0.35431
-0.278087 -0.956848 -0.273074
-0.1319 -0.17816 -0.0847625
0.0154236 0.660345 0.226904
-0.125293 -0.210132 -0.148744
-0.136058 -0.209261 -0.0978364
-0.195039 -0.733436 -0.2216
-0.00616713 0.805295 0.267311
-0.147488 -0.181225 -0.138011
-0.286599 -0.781219 -0.229042
0.0299119 0.476193 0.167868
0.0068614 0.665238 0.207854
0.0606216 0.277912 -0.295818
-0.154297 -0.229168 -0.193889
0.00268253 0.803454 0.278473
-0.116035 -0.148847 -0.195217
-0.00794536 0.206675 0.0480784
-0.076757 -0.0645858 -0.0214732
-0.0457352 0.0669351 -0.242656
0.0767856 0.270078 -0.282621
-0.152596 -0.188765 -0.137567
-0.271269 -0.903275 -0.198581
-0.269928 -0.961725 -0.261086
-0.220545 -0.483385 -0.183706
-0.00665693 0.824403 0.277168
-0.0926496 -0.182047 -0.202355
-0.16976 -0.303184 -0.20476
-0.20529 -0.489007 -0.221843
-0.34275 -0.948836 -0.265307
0.265554 0.721539 -0.358207
0.0145095 0.289122 0.0860076
-0.316285 -0.970118 -0.285276
0.0106211 0.480369 0.177553
-0.0840209 -0.0133863 0.00676847
-0.0696231 0.012415 -0.235853
0.152587 0.467189 -0.317008
-0.10323 -0.230406 -0.19393
-0.124004 -0.335424 -0.199266
-0.28568 -0.781905 -0.215078
-0.221646 -0.766614 -0.257443
0.102929 0.383569 -0.287596
-0.104173 -0.0849287 -0.0326557
0.0140244 0.43528 0.167822
-0.217448 -0.666505 -0.244321
0.00145227 0.78312 0.271545
-0.179743 -0.476935 -0.226327
-0.121753 -0.330894 -0.189112
-0.131674 -0.273725 -0.20838
-0.120487 -0.314979 -0.159013
-0.0477592 -0.0259819 -0.244264
0.113054 0.417411 -0.317221
-0.150686 -0.254455 -0.166261
-0.309248 -0.885112 -0.266676
-0.14616 -0.295117 -0.211999
-0.205076 -0.724213 -0.242916
0.0796656 0.279875 -0.274385
-0.112141 -0.263684 -0.194039
-0.0570174 -0.0330582 -0.0371308
-0.0858734 -0.0372384 -0.0621837
0.079549 0.340835 -0.295224
0.00806214 0.395075 0.126601
-0.0055997 0.34104 0.127883
-0.138129 -0.367541 -0.169921
-0.217356 -0.467411 -0.198543
-0.311361 -0.935648 -0.201616
-0.165485 -0.544748 -0.175998
-0.142053 -0.32341 -0.146341
-0.254116 -0.930668 -0.238417
-0.00182742 0.823317 0.287683
-0.196531 -0.740728 -0.207747
-0.135372 -0.163837 -0.216567
0.0748301 0.271185 -0.288918
-0.134255 -0.404568 -0.193847
-0.183007 -0.384075 -0.166446
-0.10831 -0.189616 -0.18449
0.0290262 0.200934 -0.290581
-0.0794449 0.008727 -0.0329275
0.0289646 0.422814 0.138699
-0.110827 -0.178247 -0.185916
-0.193931 -0.719509 -0.224119
-0.120746 -0.127775 -0.116887
-0.2433 -0.86048 -0.201054
-0.264631 -0.887604 -0.272787
-0.287355 -0.788955 -0.239074
-0.198319 -0.514448 -0.226263
-0.164992 -0.260417 -0.134186
0.245301 0.680159 -0.362434
-0.00810128 0.994232 0.362151
-0.224274 -0.817787 -0.254302
-0.296273 -0.974411 -0.206529
-0.110245 -0.249722 -0.202043
-0.152468 -0.17476 -0.120852
-0.0957937 -0.0999609 -0.208666
0.0945515 0.348802 -0.277398
0.138249 0.449843 -0.329023
-0.0410878 0.07202 -0.242066
-0.193003 -0.54598 -0.226224
-0.146221 -0.41241 -0.169495
0.00740552 0.123648 -0.26969
0.205436 0.60008 -0.354666
0.023326 0.52322 0.186419
-0.181075 -0.48274 -0.157978
-0.197445 -0.533877 -0.155697
-0.218667 -0.694401 -0.171238
-0.141671 -0.406952 -0.213497
0.0154766 0.232201 0.0770478
0.0019457 0.426192 0.147473
-0.137081 -0.39713 -0.177774
-0.28255 -0.831308 -0.265777
-0.0947192 -0.106355 -0.207087
0.0126134 0.577667 0.201411
-0.157266 -0.239716 -0.188348
0.0036217 0.425508 0.157861
-0.249988 -0.891804 -0.209012
-0.0206556 0.180442 0.0380088
-0.106912 -0.0568308 -0.0253849
-0.124451 -0.127398 -0.215842
-0.176058 -0.513776 -0.22289
-0.275485 -0.739481 -0.212431
-0.279363 -0.830251 -0.192661
-0.00872476 0.156951 0.0339195
-0.258243 -0.910676 -0.264855
-0.212 -0.81215 -0.217587
1.56135e-05 0.916877 0.319648
0.0118413 0.454296 0.171764
-0.27091 -0.97737 -0.245509
-0.1776 -0.431849 -0.159541
-0.25524 -0.897904 -0.265259
0.0151971 0.149941 -0.258298
-0.177852 -0.507247 -0.224354
-0.0389431 0.0615559 -0.239057
-0.253422 -0.693007 -0.181424
-0.0977067 -0.0170603 -0.0410883
0.00407257 0.271408 0.0746916
-0.212828 -0.586703 -0.230291
0.0565092 0.226952 -0.276227
-0.253661 -0.659717 -0.227237
-0.176591 -0.287244 -0.16632
-0.0904935 -0.0150447 0.00157066
-0.263016 -0.873317 -0.272547
-0.169028 -0.273628 -0.180915
-0.193351 -0.706283 -0.226736
0.306432 0.793294 -0.351959
-0.176538 -0.296975 -0.181217
-0.261149 -0.728577 -0.187274
-0.244972 -0.615444 -0.177716
-0.0157712 0.279324 0.0923244
-0.113632 -0.28456 -0.15361
-0.293335 -0.962137 -0.281596
-0.0793689 -0.131828 -0.220831
-0.0751836 -0.0262817 0.00265505
-0.117996 -0.220518 -0.174452
-0.136849 -0.333158 -0.15284
-0.0152822 0.181211 0.0815387
-0.132253 -0.377144 -0.208356
-0.228773 -0.632393 -0.164437
0.113652 0.428973 -0.312194
0.0203402 0.499856 0.182523
-0.150197 -0.379818 -0.224408
-0.200423 -0.68668 -0.237807
0.0182022 0.287938 0.112777
-0.150378 -0.445157 -0.171296
0.0068984 0.827811 0.279408
-0.216765 -0.784458 -0.254799
-0.118492 -0.10293 -0.231797
-0.218073 -0.48526 -0.176375
-0.111669 -0.23901 -0.119892
-0.00179663 0.748091 0.256293
-0.299342 -0.840956 -0.255993
-0.061411 -0.0218419 -0.043243
0.16015 0.487273 -0.332184
0.0257176 0.564665 0.177711
0.27274 0.734689 -0.362589
0.0211195 0.551335 0.169899
0.0746534 0.276964 -0.292496
-0.00643299 0.345951 0.122919
-0.0733631 -0.0802573 -0.255156
-0.213331 -0.747378 -0.250759
-0.250777 -0.746169 -0.180822
-0.100136 -0.00927348 -0.0225715
-0.0687973 0.08346 0.0226662
-0.239434 -0.878019 -0.251266
0.00183448 0.108405 -0.26719
-0.0681533 0.0843286 0.0159787
-0.0450478 -0.00278167 -0.265062
-0.334757 -0.916153 -0.243391
-0.082519 0.0407745 -0.00341241
-0.14641 -0.241247 -0.16131
-0.0153947 0.276264 0.10235
0.120148 0.441584 -0.319661
-0.16405 -0.227625 -0.139854
-0.0226133 0.0960597 -0.244221
-0.106845 -0.180993 -0.0895876
-0.0585685 0.0309048 0.0278848
-0.180088 -0.348391 -0.214931
-0.193231 -0.374246 -0.181804
-0.152534 -0.230313 -0.114073
-0.221775 -0.575056 -0.225207
-0.00426356 0.873982 0.298244
0.00731975 0.251699 0.0689818
0.137576 0.464417 -0.332017
-0.00800183 0.174257 0.0785345
-0.165363 -0.238262 -0.150601
-0.206064 -0.469885 -0.218289
-0.13602 -0.199668 -0.222555
-0.206049 -0.774404 -0.202399
-0.281563 -0.839301 -0.26856
-0.146279 -0.218682 -0.106043
-0.131007 -0.356725 -0.170958
-0.249591 -0.903533 -0.255674
-0.146475 -0.306981 -0.138774
-0.0771135 0.0374106 0.0209858
0.00352096 0.374905 0.119924
-0.191729 -0.622011 -0.228767
-0.192225 -0.716437 -0.206387
-0.213434 -0.472662 -0.211075
0.00285086 0.556066 0.181605
0.025939 0.561221 0.192127
-0.107442 -0.170953 -0.235962
-0.243388 -0.775608 -0.182055
-0.121911 -0.180613 -0.14198
-0.196741 -0.729468 -0.22979
-0.282613 -0.793116 -0.20197
-0.266098 -0.726758 -0.193305
0.0303856 0.451805 0.162531
-0.0600659 -0.0368459 -0.229386
-0.231081 -0.853761 -0.249421
-0.00332975 0.269478 0.11283
-0.215169 -0.462236 -0.183209
0.0020997 0.64385 0.215296
-0.0951243 -0.1933 -0.199804
-0.280118 -0.928759 -0.201449
0.186077 0.541649 -0.337843
0.0299844 0.208675 -0.291362
-0.305185 -0.96548 -0.202858
0.0126053 0.328201 0.134388
-0.127255 -0.334815 -0.206202
-0.167401 -0.406956 -0.226687
-0.0886511 -0.0348589 -0.228939
-0.103872 -0.0740031 -0.254197
0.0376778 0.196594 -0.26314
-0.15884 -0.248312 -0.194831
0.108743 0.404527 -0.294503
-0.0463119 0.0323573 -0.274554
-0.261363 -0.704647 -0.189574
-0.116263 -0.192931 -0.090827
-0.00457648 0.760309 0.252111
-0.0218286 0.104986 -0.28273
0.0103967 0.636804 0.196017
-0.0393286 0.116762 0.0573627
-0.0141474 0.128041 -0.249235
0.195499 0.591528 -0.337019
-0.122212 -0.0931611 -0.0869816
-0.0324738 0.0718429 0.0378137
0.0167527 0.476108 0.177671
-0.103182 -0.122909 -0.248743
0.145169 0.499714 -0.321283
-0.199215 -0.469264 -0.222693
0.164878 0.50172 -0.336556
-0.084626 0.0032997 0.0120531
0.0028669 0.472189 0.157165
-0.179985 -0.610288 -0.175375
-0.276568 -0.992113 -0.250493
0.000533641 0.157485 0.0502697
0.19994 0.568755 -0.344774
0.127823 0.441311 -0.326305
-0.172419 -0.305976 -0.150955
-0.0522957 -0.00131785 -0.269628
0.00696257 0.439808 0.141909
0.00259399 0.831039 0.276077
-0.331829 -0.912737 -0.251256
-0.245131 -0.58556 -0.19548
-0.11173 -0.267092 -0.163965
-0.0147477 0.289053 0.100498
-0.136796 -0.169978 -0.204597
-0.0417632 0.0140916 -0.236234
-0.18324 -0.472569 -0.157987
0.140327 0.432417 -0.318061
-0.0743925 -0.0347034 -0.266644
-0.0864478 -0.149108 -0.231357
-0.0565141 -0.0485828 -0.250725
0.320964 0.813147 -0.358297
-0.0979261 -0.132856 -0.0592977
0.151881 0.484224 -0.336879
-0.104274 -0.187668 -0.134523
-0.141846 -0.255819 -0.117846
-0.175783 -0.532669 -0.16177
-0.190967 -0.709985 -0.2075
-0.0563871 0.119952 0.0344964
-0.124102 -0.124709 -0.228772
-0.00543351 0.787264 0.2608
-0.239908 -0.832791 -0.264297
-0.0264476 0.209066 0.06938
-0.212224 -0.581936 -0.155303
-0.266537 -0.737923 -0.244074
-0.275784 -0.952641 -0.211645
-0.25012 -0.815802 -0.186877
-0.264205 -0.934119 -0.21471
-0.0627694 0.011041 -0.0307714
-0.159041 -0.481561 -0.168693
-0.202201 -0.629813 -0.163503
-0.0916326 0.00337199 0.00333221
0.0358074 0.18475 -0.277714
-0.161098 -0.256853 -0.178527
0.147126 0.494762 -0.317473
-0.182217 -0.657079 -0.199046
-0.241431 -0.622029 -0.226525
0.0682273 0.319212 -0.286405
-0.178156 -0.295108 -0.164896
0.0772145 0.335003 -0.293831
-0.19111 -0.693271 -0.193095
-0.249864 -0.615073 -0.189428
-0.181627 -0.582682 -0.219124
0.153993 0.477023 -0.31645
0.118603 0.378531 -0.29202
-0.263975 -0.862952 -0.272834
-0.262704 -0.813826 -0.268254
-0.115736 -0.0942451 -0.227645
-0.300718 -0.919839 -0.2796
-0.205077 -0.562311 -0.154736
0.0458852 0.274752 -0.275128
-0.211895 -0.706855 -0.176053
-0.0730929 -0.0435841 -0.265678
-0.286056 -0.843245 -0.195103
-0.254841 -0.913143 -0.259852
-0.282016 -0.990418 -0.224003
0.0139256 0.21443 -0.27602
-0.0598321 -0.0409063 -0.0189474
-0.128666 -0.0967794 -0.070585
-0.173292 -0.433376 -0.226627
-0.207914 -0.587768 -0.155456
-0.153758 -0.375312 -0.162234
-0.124489 -0.202642 -0.227523
0.00563627 0.241775 0.0646622
0.0866177 0.360417 -0.298089
0.0226856 0.359882 0.114288
-0.00840778 0.32243 0.120617
-0.116577 -0.090771 -0.0905522
-0.181835 -0.313608 -0.170707
-0.137862 -0.193619 -0.220794
-0.148487 -0.469292 -0.201522
0.00664174 0.548214 0.191057
2.13884e-05 0.862413 0.305797
0.0114644 0.486798 0.179368
-0.197386 -0.572245 -0.154946
-0.300901 -0.823193 -0.221413
-0.0999645 -0.022863 -0.0440099
-0.0951829 -0.178438 -0.225697
-0.207076 -0.788683 -0.207029
-0.127303 -0.115269 -0.0609098
-0.0114417 0.23647 0.0617972
-0.25881 -0.943506 -0.243052
0.160519 0.488169 -0.322852
-0.00876689 0.0921217 -0.251099
0.00327328 0.482533 0.170468
-0.278838 -0.755593 -0.227507
-0.146287 -0.419066 -0.170565
0.106964 0.33915 -0.291965
-0.162974 -0.536001 -0.204461
-0.188663 -0.549713 -0.156926
-0.256316 -0.854392 -0.192531
-0.13404 -0.1849 -0.0881276
0.00154638 0.647634 0.208194
-0.053616 -0.000236021 -0.028212
0.117072 0.411052 -0.294301
-0.103591 -0.0536221 -0.243506
0.105845 0.409875 -0.30703
-0.247646 -0.91059 -0.244693
-0.232493 -0.560992 -0.169002
-0.215986 -0.496869 -0.214735
-0.204497 -0.723834 -0.185466
-0.0994214 -0.161033 -0.237021
0.0182924 0.22187 -0.270977
-0.129257 -0.168406 -0.229192
-0.162569 -0.328499 -0.218073
0.00645887 0.794851 0.273639
0.0178467 0.505685 0.156218
-0.139646 -0.228788 -0.156591
-0.0591862 -0.0542745 -0.25198
-0.104621 -0.205903 -0.221028
-0.216119 -0.5489 -0.223242
0.335628 0.844598 -0.356192
-0.133128 -0.2031 -0.0947749
0.0137816 0.668847 0.230348
-0.0637496 0.0888308 0.0344891
-0.257612 -0.650859 -0.211166
-0.199513 -0.758464 -0.227972
-0.214906 -0.480692 -0.17295
-0.106252 -0.0998317 -0.251168
-0.230825 -0.775082 -0.183216
-0.301749 -0.825224 -0.237688
-0.155776 -0.198041 -0.113803
0.305776 0.783082 -0.353364
-0.29201 -0.936699 -0.200086
-0.251086 -0.825585 -0.188141
-0.00168134 0.373929 0.137866
0.181722 0.565854 -0.348394
-0.0815161 -0.0848218 -0.0335525
-0.135439 -0.135511 -0.113222
-0.105401 -0.194745 -0.13657
-0.144836 -0.381616 -0.166494
0.00701582 0.159904 -0.287933
-0.22751 -0.511725 -0.199385
0.065691 0.264322 -0.266547
-0.251917 -0.924649 -0.238536
-0.00518647 0.352898 0.121108
-0.104811 -0.173786 -0.132864
-0.227736 -0.65895 -0.243245
-0.334901 -0.937834 -0.265349
-0.352176 -0.898414 -0.266828
0.0308767 0.475016 0.161725
-0.215935 -0.800735 -0.249978
-0.105865 -0.183764 -0.186767
-0.0612594 0.0411629 0.0309925
-0.0820371 -0.0194693 -0.230919
-0.0859198 -0.0694504 -0.0217602
-0.0757868 -0.0933391 -0.250713
-0.0718039 -0.0318466 -0.0552429
0.0288649 0.444491 0.145209
-0.203808 -0.49841 -0.160128
-0.265684 -0.880596 -0.273346
0.0857718 0.344641 -0.277993
-0.274765 -0.735802 -0.224995
0.029378 0.361917 0.127227
-0.312533 -0.942287 -0.201974
-0.169037 -0.568341 -0.178103
-0.199213 -0.490891 -0.22473
-0.153861 -0.406644 -0.163615
-0.096463 -0.0713073 -0.218857
-0.159417 -0.266024 -0.199211
-0.193799 -0.475491 -0.159311
-0.0215268 0.0923672 0.0168952
-0.172394 -0.290649 -0.148628
0.127216 0.458036 -0.311711
-0.128286 -0.146671 -0.0702154
-0.242846 -0.766715 -0.263012
-0.220803 -0.491663 -0.178475
-0.0957706 -0.113138 -0.0469633
-0.17828 -0.590575 -0.215114
0.290834 0.768272 -0.36245
0.110612 0.369828 -0.309668
-0.285891 -0.950835 -0.204632
-0.150798 -0.222377 -0.158662
-0.0944005 -0.0218787 -0.00388125
-0.269398 -0.708996 -0.219988
-0.249559 -0.656498 -0.230934
0.302225 0.788509 -0.352494
-0.181396 -0.319737 -0.166968
-0.146864 -0.426261 -0.214779
-0.00139752 0.148523 -0.287036
-0.171276 -0.510047 -0.220765
0.00287674 0.577906 0.189269
-0.0195935 0.0628234 -0.247034
-0.0155367 0.156933 -0.265792
-0.147023 -0.194031 -0.145174
-0.124445 -0.136749 -0.207474
-0.0392689 0.0505392 -0.276687
-0.0863828 -0.0812865 -0.0290691
-0.257653 -0.765166 -0.18506
0.0758651 0.330227 -0.277757
-0.164754 -0.53078 -0.209762
-0.00780014 0.223778 0.0967912
-0.210543 -0.810261 -0.22371
-0.085766 -0.0171763 -0.236307
-0.0472677 0.0595039 -0.00955901
0.002511 0.926727 0.329583
0.00408925 0.843703 0.295354
0.306918 0.784545 -0.360866
-0.0531014 -0.0176498 -0.232024
0.00371987 0.128687 -0.254968
-0.0821043 -0.00165001 -0.252213
-0.198806 -0.42436 -0.215438
-0.222736 -0.495065 -0.202358
-0.107013 -0.0808521 -0.221585
0.028786 0.373431 0.142347
-0.0743382 0.0204393 -0.0261791
-0.042275 0.159119 0.0432827
-0.0948539 -0.0931156 -0.0949781
-0.139804 -0.339995 -0.154888
-0.228472 -0.74739 -0.258298
-0.0162355 0.224121 0.0586554
-0.076997 -0.110165 -0.0761242
0.185204 0.571601 -0.333217
0.15535 0.528121 -0.335823
-0.227688 -0.783593 -0.18571
0.00826704 0.441999 0.167032
-0.138753 -0.242919 -0.112018
-0.00236299 0.176466 -0.281016
-0.0476741 0.0808222 -0.266718
-0.0634671 0.0428759 -0.249193
-0.316733 -0.865974 -0.236891
-0.322828 -0.895796 -0.256118
-0.239701 -0.842208 -0.196673
-0.24153 -0.568489 -0.187344
0.0296593 0.437308 0.144134
0.130712 0.455005 -0.328323
0.0125565 0.226838 0.0885348
-0.132601 -0.237847 -0.156437
-0.0780961 -0.0109334 -0.231841
-0.287402 -0.78367 -0.221403
-0.118703 -0.178948 -0.0831685
0.00485773 0.538873 0.171331
-0.216881 -0.580254 -0.228158
0.00197222 0.628322 0.205289
0.211713 0.599788 -0.354028
0.0242647 0.479892 0.151245
-0.138897 -0.418709 -0.203663
-0.193161 -0.367954 -0.186228
-0.127706 -0.32349 -0.207124
-0.0445914 0.0900061 -0.26626
-0.263421 -0.676902 -0.208237
-0.14202 -0.215393 -0.102465
-0.261865 -0.948354 -0.251414
-0.153515 -0.344323 -0.15418
0.0181252 0.179051 -0.289079
-0.00488383 0.355933 0.127923
-0.22797 -0.576814 -0.22225
-0.0459859 0.0283438 -0.234289
-0.196254 -0.743933 -0.215227
-0.0294018 0.113835 -0.251237
0.00277878 0.271598 0.114342
-0.00704491 0.841076 0.286266
-0.286349 -0.939656 -0.27962
0.0238053 0.568221 0.196063
-0.0287116 0.0879969 0.0446435
-0.148691 -0.287027 -0.131192
-0.212198 -0.44475 -0.195977
-0.243428 -0.882806 -0.255719
-0.14731 -0.2324 -0.174765
-0.151848 -0.189266 -0.10551
-0.268432 -0.828372 -0.269757
-0.0985995 -0.127201 -0.0552198
-0.153134 -0.185647 -0.131568
-0.179509 -0.302209 -0.17542
-0.0797571 0.0481738 0.014356
-0.0960055 -0.0317602 -0.0557689
-0.19682 -0.744977 -0.222471
-0.168305 -0.2622 -0.169367
-0.155329 -0.497715 -0.178723
-0.0165844 0.234226 0.0947486
0.141007 0.432611 -0.311656
0.196913 0.563208 -0.338122
-0.298044 -0.819075 -0.216526
-0.104251 -0.211747 -0.18582
-0.201192 -0.425982 -0.173203
-0.0745026 0.0109116 0.0190831
-0.156122 -0.448841 -0.219012
-0.229054 -0.818072 -0.195488
-0.0234962 0.185566 0.0416519
-0.305101 -0.849099 -0.211873
-0.0637368 0.0984567 0.0269743
-0.130267 -0.269709 -0.1245
-0.108081 -0.239392 -0.12591
-0.178235 -0.329746 -0.207906
-0.249467 -0.610454 -0.205527
-0.0194192 0.256958 0.0874669
-0.0927164 -0.0776697 -0.0261808
-0.112071 -0.143752 -0.126669
-0.118374 -0.151238 -0.238456
-0.204984 -0.43982 -0.173479
-0.288128 -0.980636 -0.276763
-0.114605 -0.197613 -0.142878
-0.120649 -0.113213 -0.233151
-0.123855 -0.136502 -0.0636379
0.237977 0.652649 -0.361385
-0.251713 -0.655413 -0.182295
-0.277273 -0.983339 -0.262696
-0.11862 -0.184487 -0.0862018
0.000791157 0.66274 0.221476
0.0048973 0.874914 0.303305
-0.261862 -0.913644 -0.207362
-0.0352791 0.0413518 0.000620371
-0.204047 -0.511609 -0.224694
-0.270322 -0.973131 -0.251965
-0.192142 -0.508627 -0.156681
-0.064202 -0.0654471 -0.233182
-0.141542 -0.416127 -0.176051
-0.281462 -0.793268 -0.252145
-0.0110651 0.29636 0.113087
-0.263886 -0.752821 -0.189116
0.0774808 0.323026 -0.272308
-0.102099 -0.22375 -0.19314
-0.290069 -0.877905 -0.27417
0.145712 0.491028 -0.337332
-0.10406 -0.222518 -0.142331
-0.158935 -0.272014 -0.201406
-0.205213 -0.527763 -0.225426
-0.0638219 -0.0109251 -0.0412878
-0.232078 -0.548552 -0.20904
-0.0667983 -0.0335611 -0.225667
-0.0372378 0.0636898 -0.277925
-0.176975 -0.338259 -0.162201
-0.340257 -0.889302 -0.243934
-0.257091 -0.925019 -0.257657
-0.0823145 -0.0468653 -0.2647
-0.0469422 0.0643606 0.0397415
-0.063663 0.0190082 -0.0270325
0.0281796 0.533191 0.172179
-0.219614 -0.684968 -0.16954
0.0208359 0.287203 0.106395
-0.112253 -0.188215 -0.231428
-0.342847 -0.921977 -0.255506
0.0241056 0.330549 0.108922
-0.156759 -0.382153 -0.226185
-0.0227765 0.223719 0.0833963
-0.209687 -0.732106 -0.183642
-0.181925 -0.637366 -0.215534
-0.203395 -0.729314 -0.188682
0.0233054 0.505732 0.182479
-0.267577 -0.717581 -0.232784
0.0120554 0.400279 0.127164
-0.214213 -0.72893 -0.17997
-0.156234 -0.338635 -0.152129
-0.194803 -0.71191 -0.194751
-0.0826651 -0.138316 -0.232411
-0.0587593 0.104799 0.0397378
-0.20155 -0.408703 -0.205599
-0.264668 -0.877282 -0.195002
-0.0902201 -0.140871 -0.240057
0.0299455 0.488287 0.16178
0.0273538 0.43213 0.162983
0.234951 0.651026 -0.345234
-0.0298839 0.134197 0.0191072
0.0186464 0.58126 0.201977
-0.0279931 0.103121 -0.280827
-0.000979161 0.38357 0.135263
-0.171542 -0.401896 -0.226537
-0.240954 -0.614296 -0.172654
0.0132411 0.376023 0.151815
0.348694 0.886259 -0.356193
0.129252 0.448823 -0.327448
-0.0717692 0.057357 -0.00544688
-0.118838 -0.2274 -0.10751
-0.160824 -0.360939 -0.161391
-0.199049 -0.634903 -0.165977
0.016751 0.153275 -0.281875
0.0278353 0.554588 0.178753
0.126624 0.413388 -0.319972
-0.0834237 0.0328557 -0.0106432
0.00162873 0.943804 0.337114
-0.261063 -0.74654 -0.186847
-0.164773 -0.334302 -0.219077
0.0233848 0.392562 0.156614
-0.122596 -0.320013 -0.199593
-0.0870996 -0.103742 -0.0949314
-0.211161 -0.484273 -0.167504
-0.0271958 0.131565 -0.26052
0.151354 0.518768 -0.338409
-0.0962189 -0.100887 -0.0993775
-0.209795 -0.435113 -0.197464
-0.0991647 -0.0836895 -0.214938
-0.12466 -0.346091 -0.175836
-0.202495 -0.579892 -0.228877
-0.193427 -0.383854 -0.177571
0.0012185 0.816442 0.284699
-0.196148 -0.600588 -0.159613
-0.276477 -0.992233 -0.24117
0.0139949 0.527347 0.162253
-0.159119 -0.378894 -0.16134
-0.231191 -0.653901 -0.241316
-0.125958 -0.133677 -0.213111
-0.305354 -0.924401 -0.279657
-0.0637456 -0.0616372 -0.0369843
-0.0979206 -0.191985 -0.19367
0.00857568 0.364823 0.112536
-0.153015 -0.401875 -0.223395
0.0240348 0.193339 -0.256532
-0.224508 -0.848918 -0.231716
-0.012709 0.200346 0.0457383
-0.170848 -0.572098 -0.205423
-0.287948 -0.92858 -0.279963
-0.15348 -0.237602 -0.116796
0.0140862 0.643871 0.221955
-0.202915 -0.745044 -0.239472
0.0785307 0.31339 -0.269474
-0.336762 -0.927722 -0.254457
-0.136954 -0.357869 -0.165795
-0.273366 -0.972351 -0.225893
-0.0793388 -0.0491237 -0.222134
-0.0507844 0.0115366 0.0160048
-0.0381614 0.0263917 0.00150692
0.0902163 0.352149 -0.304189
0.0721754 0.314537 -0.271971
0.0316048 0.426856 0.155003
-0.260467 -0.896899 -0.269609
-0.00861097 0.0814914 -0.257096
-0.00360544 0.142939 0.0486418
-0.0753704 -0.0230752 -0.226577
0.00705496 0.752974 0.260353
-0.202306 -0.779468 -0.217955
0.0988446 0.378237 -0.287158
-0.172607 -0.578656 -0.20701
-0.16107 -0.499073 -0.213618
-0.114552 -0.116006 -0.0504705
0.0451447 0.270613 -0.287319
-0.13731 -0.406966 -0.20612
-0.13504 -0.256937 -0.16168
-0.015688 0.15625 -0.273466
0.0584829 0.241916 -0.289264
-0.322664 -0.956722 -0.205254
-0.12586 -0.245029 -0.166577
0.000183726 0.295764 0.122358
-0.235352 -0.649396 -0.238853
-0.18854 -0.365029 -0.177202
0.0285809 0.221503 -0.260419
-0.270625 -0.715367 -0.221698
-0.161215 -0.243179 -0.17279
-0.065893 -0.0488005 -0.0173037
-0.0497879 0.0474359 0.0334986
-0.022001 0.101473 0.0156812
-0.271324 -0.974218 -0.232942
-0.175084 -0.280903 -0.165181
-0.12665 -0.316848 -0.151359
-0.220477 -0.562508 -0.222576
-0.206609 -0.752821 -0.193001
-0.00492575 0.154046 -0.286057
0.000562087 0.322141 0.0960661
0.120777 0.447006 -0.315091
-0.100836 -0.12922 -0.247539
0.0022738 0.467229 0.163674
0.0935832 0.313414 -0.293886
-0.0740291 -0.0346724 -0.00238021
-0.0229889 0.0549974 -0.2714
-0.259217 -0.931355 -0.258092
-0.295506 -0.926537 -0.198539
-0.159317 -0.528088 -0.184696
-0.0718045 0.024443 -0.251684
-0.136587 -0.227977 -0.105538
0.173403 0.550457 -0.329678
-0.299633 -0.860353 -0.201949
-0.193727 -0.724366 -0.205654
-0.162104 -0.228949 -0.151452
0.050603 0.285682 -0.281516
-0.15681 -0.203962 -0.115797
-0.111937 -0.270381 -0.158613
-0.114423 -0.171022 -0.236054
-0.209358 -0.496791 -0.163403
0.0109098 0.585859 0.202806
-0.197029 -0.73621 -0.228144
0.0675491 0.257161 -0.270395
-0.0423794 0.0497065 -0.23714
-0.101126 -0.200553 -0.220229
-0.0883497 -0.15641 -0.229524
0.0125661 0.442607 0.139399
-0.0729535 0.0599261 0.0247172
-0.265029 -0.789396 -0.262664
-0.124691 -0.142647 -0.066434
0.0114351 0.225464 0.0653477
0.0147332 0.541362 0.193037
-0.193154 -0.664644 -0.178408
-0.148551 -0.201411 -0.148373
-0.000395044 0.731382 0.250676
-0.295426 -0.955168 -0.282268
-0.101221 -0.14106 -0.120263
-0.121531 -0.275244 -0.131971
-0.153172 -0.480502 -0.176783
-0.0957867 -0.0993122 -0.0385052
-0.27447 -0.826409 -0.190669
-0.0342561 0.117064 -0.264226
-0.256403 -0.792158 -0.18526
-0.232885 -0.583286 -0.165812
-0.081453 -0.112897 -0.0895946
-0.294759 -0.905985 -0.196949
0.150502 0.498468 -0.339843
-0.296618 -0.811439 -0.219585
-0.0971564 -0.0938552 -0.210785
-0.178988 -0.454769 -0.226651
-0.32079 -0.889045 -0.254655
-0.230915 -0.583578 -0.222172
-0.113117 -0.269558 -0.190454
-0.245823 -0.744952 -0.258397
-0.177802 -0.319252 -0.159842
0.00208409 0.190607 -0.268182
-0.0654936 -0.024268 -0.226389
-0.0931084 -0.0681925 -0.0213915
0.0108257 0.423875 0.135005
-0.0609154 -0.0353761 -0.263869
-0.247195 -0.910485 -0.232356
-0.0715324 -0.0792497 -0.0389961
-0.223418 -0.844244 -0.236198
0.0363363 0.211439 -0.290921
0.0188475 0.424699 0.133802
-0.2449 -0.889768 -0.254634
-0.0163399 0.129833 0.0600545
-0.345734 -0.948604 -0.258267
0.00181844 0.348852 0.108012
-0.299942 -0.819542 -0.23564
-0.0956429 -0.0104883 -0.00382114
-0.0360726 0.149374 0.0275336
0.145565 0.465254 -0.332234
-0.159191 -0.434778 -0.163033
-0.227482 -0.555076 -0.165059
-0.186082 -0.358557 -0.212601
-0.11622 -0.209671 -0.225546
0.265874 0.714101 -0.354157
-0.0397891 0.039941 0.024191
-0.151366 -0.177275 -0.127854
-0.156127 -0.471669 -0.214451
-0.184303 -0.526692 -0.157607
-0.0364679 0.0679434 -0.240026
-0.14578 -0.199 -0.20417
0.0187033 0.156993 -0.25917
-0.123343 -0.292085 -0.139877
-0.261639 -0.760404 -0.187134
-0.146643 -0.453729 -0.179686
-0.0852231 -0.027124 -0.261431
-0.0885208 0.00722019 0.008539
-0.300222 -0.818981 -0.227684
-0.141826 -0.205909 -0.0991075
0.0545569 0.287454 -0.289709
0.177392 0.55655 -0.330361
-0.129937 -0.378547 -0.187085
-0.0873887 0.0195615 -0.0169577
-0.20594 -0.769514 -0.24167
-0.214663 -0.462388 -0.203747
-0.180795 -0.621793 -0.179188
-0.233817 -0.613548 -0.229771
-0.0412469 -0.00699283 -0.244606
-0.125814 -0.0901118 -0.0614126
-0.134653 -0.380487 -0.176482
-0.128254 -0.107102 -0.0932347
-0.264449 -0.683023 -0.207152
-0.0367825 0.0100073 -0.242891
-0.24371 -0.728866 -0.177104
-0.169206 -0.514088 -0.164547
0.071172 0.32467 -0.287663
-0.00855985 0.123584 -0.24875
-0.205606 -0.486377 -0.162793
-0.280024 -0.85718 -0.272678
-0.121036 -0.291758 -0.199612
0.189179 0.555085 -0.347395
-0.0983312 -0.136074 -0.245284
-0.132665 -0.116604 -0.0962017
-0.214409 -0.633539 -0.16202
-0.201565 -0.645814 -0.236526
0.157996 0.504849 -0.319958
0.153303 0.503924 -0.341363
-0.165175 -0.374427 -0.226638
0.00114513 0.398026 0.143403
-0.0548467 0.0633162 -0.264186
0.0141566 0.738169 0.242658
0.202103 0.5906 -0.353668
0.010624 0.132045 -0.273763
-0.218284 -0.46927 -0.192613
-0.0621036 0.0257366 -0.236464
-0.21194 -0.672884 -0.169004
0.0258464 0.328469 0.115439
-0.161666 -0.495569 -0.168517
-0.0894089 -0.0837314 -0.0881547
-0.00206804 0.316353 0.0946851
0.00364629 0.239119 0.101773
0.0134691 0.666074 0.207722
-0.0582727 -0.00678194 -0.229198
-0.132972 -0.394812 -0.199978
-0.13043 -0.330626 -0.155707
-0.277619 -0.976137 -0.221465
-0.122291 -0.188131 -0.182451
-0.170173 -0.416543 -0.159782
-0.152558 -0.467703 -0.173582
-0.0953144 -0.178502 -0.11287
-0.0946586 -0.0780723 -0.215673
-0.141645 -0.233106 -0.17089
0.0349587 0.253282 -0.272671
-0.198588 -0.667476 -0.174365
-0.256155 -0.846856 -0.190992
0.0121593 0.193467 -0.287449
-0.114156 -0.236269 -0.214422
0.00623429 0.284212 0.118789
-0.0736161 -0.00194495 -0.265766
0.305126 0.800963 -0.358502
-0.213642 -0.449687 -0.191712
-0.271702 -0.933779 -0.272051
0.0204018 0.366168 0.114679
0.0332348 0.400792 0.143691
0.128606 0.463846 -0.314871
-0.0333723 0.114324 -0.256474
-0.133853 -0.21292 -0.222697
-0.255983 -0.799961 -0.185488
-0.164166 -0.549056 -0.181815
-0.308244 -0.990293 -0.206342
-0.24174 -0.894076 -0.243136
-0.160201 -0.406587 -0.225606
0.00417416 0.586257 0.196589
-0.164956 -0.466291 -0.222316
-0.124205 -0.0907107 -0.0806397
0.138845 0.439305 -0.32477
-0.012515 0.0958798 -0.279831
-0.0120361 0.278178 0.0835603
0.222079 0.643706 -0.349595
-0.0130332 0.259342 0.103962
-0.0973897 -0.056929 -0.225617
-0.278212 -0.750437 -0.222177
-0.0762644 -0.046217 -0.064167
-0.0201772 0.236313 0.0897516
-0.189334 -0.576761 -0.157926
0.015073 0.620478 0.213723
-0.0908066 -0.0543611 -0.0726768
-0.219067 -0.525247 -0.217987
-0.239817 -0.734574 -0.176782
0.00765598 0.276385 0.115355
0.0325238 0.422942 0.150118
-0.0352506 0.171365 0.0661258
0.124832 0.398344 -0.295922
0.0274452 0.415339 0.134947
-0.0262511 0.155164 0.0714669
-0.10082 -0.0468689 -0.243162
-0.204181 -0.410492 -0.191424
0.0972032 0.388947 -0.30073
0.00304699 0.831941 0.291021
-0.118687 -0.143673 -0.127516
-0.0243409 0.149586 0.025349
-0.0260173 0.194932 0.0769675
-0.0903827 -0.0861821 -0.0312092
-0.15625 -0.506518 -0.181053
0.00141805 0.686346 0.21945
-0.105296 -0.134904 -0.11981
-0.033142 0.0433454 -0.274049
-0.152736 -0.295761 -0.21163
-0.0841708 -0.0112307 -0.256439
0.0139576 0.302512 0.0898136
-0.0580173 -0.0548603 -0.245318
-0.005324 0.780173 0.265112
-0.00917391 0.172908 0.0367599
-0.2859 -0.827047 -0.262521
-0.213083 -0.615691 -0.159392
-0.202938 -0.600191 -0.157705
-0.0754685 0.0634914 0.00889554
-0.151243 -0.168794 -0.117896
-0.320893 -0.880883 -0.245941
0.00183534 0.896473 0.320002
-0.332425 -0.958566 -0.27901
-0.202865 -0.482533 -0.222353
-0.205561 -0.735312 -0.188159
-0.059599 -0.0438376 -0.231185
-0.1632 -0.26719 -0.133045
-0.239476 -0.607219 -0.171465
0.0040469 0.726942 0.231998
-0.0765827 -0.0765314 -0.0758474
-0.0522001 -0.00552837 -0.231518
0.0174893 0.25647 0.0838869
-0.218254 -0.555109 -0.158865
-0.283062 -0.799383 -0.20059
-0.245759 -0.593098 -0.186741
-0.0362985 0.0748116 0.0418131
-0.239449 -0.877423 -0.215104
-0.18332 -0.490543 -0.157616
-0.338849 -0.934675 -0.25612
-0.235441 -0.540939 -0.190631
0.131101 0.405194 -0.308301
0.00498007 0.447579 0.146244
-0.00127133 0.178857 0.0431829
-0.271231 -0.977456 -0.238818
0.0678496 0.275792 -0.295413
0.00852456 0.60538 0.185573
-0.161922 -0.286011 -0.204645
0.0444196 0.254233 -0.29268
-0.092621 -0.0739712 -0.261239
-0.0879014 -0.0186146 -0.253883
0.0958893 0.37201 -0.285739
-0.18674 -0.651109 -0.222617
-0.157367 -0.432165 -0.222255
0.00378104 0.454027 0.164838
-3.42214e-06 0.108496 -0.273666
-0.198264 -0.418522 -0.172066
-0.0325833 0.187289 0.066062
-0.0229974 0.0568295 -0.244933
-0.247953 -0.740208 -0.179413
-0.137224 -0.401024 -0.208391
-0.143597 -0.191221 -0.205168
-0.110789 -0.0911705 -0.0387482
0.138826 0.441189 -0.305396
-0.120227 -0.0778909 -0.0486632
0.145466 0.452362 -0.326328
-0.0344319 0.102562 -0.276413
-0.262208 -0.682298 -0.222738
-0.0124748 0.302573 0.101859
-0.137896 -0.153834 -0.0806955
-0.0261542 0.0776868 0.0107989
-0.166411 -0.390822 -0.226862
-0.0936677 -0.0439259 -0.010572
0.0151325 0.462816 0.144369
-0.280675 -0.806991 -0.258923
-0.137777 -0.345491 -0.158523
-0.00463529 0.818843 0.283971
-0.114684 -0.284209 -0.175176
-0.188538 -0.352262 -0.181876
-0.262015 -0.756671 -0.254866
-0.275784 -0.987467 -0.255157
0.106122 0.339201 -0.285587
0.00631599 0.304469 0.087727
-0.0280693 0.163384 0.0725765
-0.105664 -0.158265 -0.191908
-0.0805194 -0.0323308 -0.0587063
0.0191221 0.580304 0.177331
-0.128141 -0.27964 -0.204859
0.0140973 0.715164 0.2441
-0.0384737 0.157898 0.0632698
0.179875 0.562896 -0.332016
-0.126935 -0.154294 -0.199392
0.0231793 0.457011 0.171502
-0.0971737 -0.0665262 -0.259481
0.122082 0.420143 -0.296748
-0.0805044 -0.114941 -0.213695
-0.109849 -0.039636 -0.0346339
0.285531 0.734594 -0.360648
-0.176561 -0.308714 -0.157107
0.33276 0.849628 -0.350941
0.00389012 0.498396 0.162039
0.0975155 0.314044 -0.287501
0.0208877 0.670915 0.220446
-0.308852 -0.86649 -0.258205
-0.0652819 0.0474571 0.0310199
-0.0280098 0.202927 0.0643202
0.0939924 0.380272 -0.300846
-0.0807761 -0.128364 -0.214539
-0.195359 -0.400794 -0.213069
0.025132 0.330615 0.124004
-0.128145 -0.182129 -0.229344
-0.0962664 -0.200731 -0.200758
-0.0556727 0.0418698 -0.238881
-0.208893 -0.801987 -0.235431
-0.0725638 -0.0975515 -0.243522
-0.142786 -0.246511 -0.213824
-0.0106448 0.244284 0.065091
-0.232873 -0.566364 -0.214008
-0.23648 -0.818431 -0.191132
-0.184308 -0.577191 -0.221289
-0.24386 -0.584006 -0.184965
0.0721488 0.274644 -0.268462
0.00293556 0.614903 0.202389
-0.203663 -0.409743 -0.198923
-0.270855 -0.834928 -0.270447
0.091869 0.373771 -0.292094
-0.0692274 -0.00714961 -0.268562
-0.282265 -0.786456 -0.204302
0.0823757 0.334448 -0.274913
0.00639107 0.434945 0.163748
-0.105406 -0.0595709 -0.245605
-0.0998145 -0.140788 -0.197589
-0.283775 -0.956873 -0.277221
-0.255129 -0.661816 -0.186862
-0.150768 -0.217138 -0.193687
-0.0106078 0.149404 -0.284031
0.00409545 0.264834 0.11179
-0.297705 -0.83488 -0.206652
-0.238082 -0.643956 -0.236007
0.105094 0.398179 -0.293717
-0.22214 -0.631345 -0.162389
-0.131671 -0.39133 -0.193665
-0.0724451 0.072369 0.0191784
-0.197143 -0.515163 -0.156711
0.12063 0.381857 -0.307979
-0.151393 -0.489857 -0.194975
-0.135781 -0.146122 -0.0767436
-0.0965911 -0.0397115 -0.236207
-0.142679 -0.154325 -0.123079
-0.0906468 -0.0548603 -0.0141505
0.143042 0.473452 -0.311122
-0.101657 -0.219414 -0.207636
0.00199725 0.317679 0.129868
-0.296973 -0.842023 -0.203627
-0.00175021 0.364143 0.120447
-0.0867732 -0.00169321 0.00870583
-0.291584 -0.934061 -0.280956
-0.000388413 0.160759 -0.286888
0.00889586 0.136073 -0.280173
-0.254349 -0.667145 -0.229596
0.0813146 0.335601 -0.29866
-0.00399621 0.309996 0.0927826
-0.00449798 0.899343 0.322196
-0.12483 -0.265974 -0.124828
0.0100498 0.237678 0.0667608
-0.183359 -0.388899 -0.22162
-0.129622 -0.137479 -0.120329
-0.181286 -0.470583 -0.226554
-0.236711 -0.831716 -0.19488
-0.00548292 0.0909216 -0.269137
-0.103466 -0.144435 -0.243352
-0.14513 -0.243176 -0.113852
-0.261483 -0.921619 -0.211306
0.1552 0.510045 -0.342628
-0.282672 -0.976415 -0.272689
0.324865 0.828788 -0.351365
-0.342486 -0.905309 -0.252466
0.0912895 0.367813 -0.28726
-0.108525 -0.0598936 -0.0701275
-0.0545466 0.0480716 -0.240634
-0.133614 -0.247211 -0.113522
-0.325964 -0.914118 -0.263393
0.0194568 0.625956 0.213936
-0.267211 -0.868372 -0.273764
-0.0677696 -0.0618419 -0.027351
-0.0751152 -0.0360423 -0.058902
-0.0596428 -0.0147187 -0.228504
0.0207861 0.5393 0.191505
-0.0942687 -0.163992 -0.197739
-0.127045 -0.133168 -0.219428
-0.289922 -0.790662 -0.222461
-0.0941288 -0.087773 -0.212467
-0.0239142 0.220259 0.067676
-0.241822 -0.815305 -0.18836
-0.252545 -0.623591 -0.203028
0.028351 0.404168 0.155897
-0.123352 -0.181756 -0.184752
-0.107214 -0.244495 -0.133226
-0.0138084 0.286048 0.106644
0.0103813 0.779195 0.263882
-0.256615 -0.653223 -0.192849
-0.238984 -0.663264 -0.170907
-0.115762 -0.13376 -0.121432
-0.263471 -0.683769 -0.2001
-0.065595 0.0201399 -0.236399
0.100516 0.394074 -0.29624
0.00233134 0.40939 0.141002
-0.306642 -0.983852 -0.205544
-0.00263013 0.812073 0.282154
-0.28074 -0.769017 -0.235514
-0.00734841 0.21756 0.0947135
0.0114524 0.600396 0.182852
-0.140743 -0.223296 -0.104843
-0.206702 -0.685192 -0.242426
-0.111449 -0.264378 -0.18601
-0.00620627 0.301405 0.120249
-0.0695232 0.000233882 -0.23125
-0.0888975 -0.0237442 -0.000109188
-0.0249476 0.137561 -0.262069
-0.26284 -0.779901 -0.261071
-0.345082 -0.93463 -0.253586
0.00108525 0.818879 0.269451
0.0167713 0.244822 0.0813575
-0.225562 -0.689387 -0.249015
0.0185063 0.303668 0.0941728
0.175289 0.558828 -0.345188
-6.03153e-05 0.794413 0.275487
-0.10693 -0.217368 -0.182551
0.0193633 0.647904 0.220409
-0.216725 -0.570896 -0.156232
-0.268049 -0.949152 -0.218315
-0.0663915 0.0589239 -0.00844061
0.0387799 0.257987 -0.270518
-0.314701 -0.869156 -0.250502
0.247661 0.681773 -0.351151
-0.27686 -0.783423 -0.252417
0.00025495 0.921207 0.331986
-0.212992 -0.638142 -0.239334
-0.0564042 0.0339382 -0.236412
-0.038762 0.0255575 0.00775811
-0.253142 -0.873289 -0.198757
-0.262826 -0.689272 -0.195256
0.18906 0.550568 -0.334039
-0.281213 -0.936102 -0.277578
-0.27645 -0.914534 -0.199458
-0.0391502 0.164191 0.0607228
0.240859 0.652095 -0.34719
-0.0409137 0.148673 0.0605981
-0.252899 -0.855508 -0.269229
0.0152983 0.230928 0.0837727
0.201486 0.608369 -0.346138
-0.140459 -0.401858 -0.173931
0.339143 0.869905 -0.354355
-0.0520696 0.0732755 -0.259749
-0.0845896 -0.00731473 -0.250537
-0.220038 -0.565807 -0.15816
-0.111163 -0.259178 -0.181447
-0.15893 -0.233423 -0.166783
-0.0907215 -0.117068 -0.10284
0.12583 0.419784 -0.322158
0.00540592 0.340999 0.138416
0.0048742 0.165879 -0.288008
0.0101317 0.421189 0.16317
-0.154379 -0.487627 -0.176993
-0.0361526 0.105247 0.00788922
-0.223483 -0.77436 -0.185728
-0.100018 -0.171351 -0.127595
-0.103392 -0.201125 -0.139248
0.00805188 0.700712 0.221197
-0.00679274 0.295077 0.0874222
-0.0801524 0.0468208 -0.00176508
-0.177809 -0.631302 -0.195825
-0.258571 -0.77212 -0.185823
-0.0321418 0.0303013 -0.268406
-0.218721 -0.681293 -0.246784
-0.271564 -0.752992 -0.197544
-0.0112343 0.192493 0.042446
-0.107676 -0.241704 -0.184046
-0.0500185 0.134786 0.0474481
-0.0620734 -0.0389939 -0.0131416
-0.0706266 -0.091079 -0.22776
-0.0797877 -0.0392684 -0.265452
-0.118289 -0.156279 -0.134905
0.110347 0.348535 -0.294812
0.0211174 0.213496 -0.261152
-0.31299 -0.893663 -0.267093
-0.0860753 -0.147244 -0.207912
0.00943913 0.71945 0.248486
0.00393547 0.248853 0.105527
-0.346476 -0.937524 -0.246067
-0.181076 -0.322921 -0.196175
0.2064 0.614614 -0.342932
0.0127702 0.721719 0.231852
0.216909 0.628042 -0.356493
-0.157526 -0.242128 -0.19476
-0.0449176 0.145019 0.05509
-0.0612097 -0.0439815 -0.0467284
-0.0217678 0.169055 0.0331292
-0.0629899 0.0714966 0.0360436
-0.198769 -0.621697 -0.2331
-0.267069 -0.961032 -0.254786
-0.111056 -0.205111 -0.225445
-0.278624 -0.782192 -0.200701
-0.122833 -0.159212 -0.0729812
0.258271 0.69338 -0.36657
-0.0689337 0.0423577 0.0281494
-0.201606 -0.551364 -0.226761
-0.238156 -0.825463 -0.263966
0.0210858 0.400775 0.127145
0.00674227 0.186731 0.0535188
-0.0688208 0.0301958 -0.248112
0.317558 0.825533 -0.35396
-0.179768 -0.302181 -0.168978
-0.30348 -0.835492 -0.245075
0.17592 0.522811 -0.336999
-0.169708 -0.285849 -0.193239
0.0203119 0.64255 0.201348
-0.105108 -0.0653631 -0.251547
-0.242447 -0.707839 -0.175021
-0.158118 -0.266369 -0.128433
-0.228823 -0.5297 -0.175632
-0.147441 -0.229787 -0.110287
-0.0871958 0.0132136 0.00993309
0.223832 0.645156 -0.355912
-0.104393 -0.183937 -0.23056
-0.0570645 -0.0222804 -0.266056
-0.231579 -0.795662 -0.262896
-0.281922 -0.779492 -0.207243
-0.309852 -0.846895 -0.235846
0.00803455 0.184857 -0.286961
-0.117098 -0.184904 -0.141296
-0.113333 -0.0872697 -0.228166
-0.141826 -0.363343 -0.165549
-0.0666747 0.0657202 0.0323982
-0.210223 -0.555333 -0.155931
-0.147879 -0.251245 -0.117878
-0.216065 -0.461372 -0.196943
-0.260878 -0.715779 -0.18788
-0.234998 -0.554795 -0.175413
0.0121249 0.156627 -0.286228
-0.0322473 0.0610443 0.030275
-0.118225 -0.241089 -0.215035
-0.00523909 0.966394 0.353344
-0.092865 -0.159822 -0.113689
-0.124211 -0.152691 -0.070458
-0.179608 -0.592537 -0.169336
-0.00125742 0.24269 0.103983
-0.260872 -0.834331 -0.188559
-0.308368 -0.963244 -0.284633
-0.0589287 0.112521 0.0317662
-0.033792 0.161086 0.0330715
-0.219287 -0.834053 -0.225389
-0.258359 -0.660245 -0.195141
0.000398466 0.141545 -0.286352
0.240078 0.667398 -0.348549
-0.00318901 0.82921 0.289908
-0.239111 -0.848177 -0.199485
0.242676 0.679073 -0.354148
-0.118505 -0.0995738 -0.0965781
0.00271547 0.461494 0.154589
-0.073266 -0.105684 -0.22646
-0.243535 -0.820193 -0.266721
0.13237 0.436734 -0.3261
-0.139252 -0.42398 -0.185029
-0.150874 -0.164769 -0.110683
-0.203112 -0.716421 -0.184527
-0.000835003 0.836629 0.27844
-0.00421651 0.336475 0.107184
-0.0432702 0.155538 0.0544522
-0.132447 -0.134172 -0.0705465
-0.122655 -0.340639 -0.180771
-0.0960987 -0.163657 -0.0860407
-0.0777757 -0.117943 -0.218643
-0.0996169 -0.198094 -0.191598
0.0712236 0.257926 -0.279285
-0.149065 -0.170901 -0.127686
-0.0773302 -0.0846922 -0.0787163
-0.20421 -0.774053 -0.23766
0.0764302 0.328096 -0.295003
-0.220389 -0.548388 -0.160974
-0.0611043 -0.0602861 -0.250251
-0.134526 -0.399282 -0.184981
-0.160043 -0.273229 -0.13169
0.000524444 0.170037 0.0702118
-0.213076 -0.814853 -0.235361
-0.187118 -0.659837 -0.22194
-0.227325 -0.83031 -0.25397
-0.218175 -0.645063 -0.163524
-0.148352 -0.214526 -0.18846
-0.114886 -0.185657 -0.183346
-0.0887385 -0.151576 -0.102059
-0.0857773 -0.0850847 -0.258993
-0.297962 -0.867261 -0.199437
-0.00650678 0.84209 0.292626
-0.0980887 -0.0443359 -0.251107
-0.208166 -0.506351 -0.161084
0.0208883 0.511668 0.185106
-0.0375197 0.0335733 -0.00217937
-0.248405 -0.757631 -0.260633
-0.0541734 -0.0286471 -0.0193891
0.310254 0.788531 -0.356565
-0.223821 -0.717809 -0.25318
0.339447 0.852708 -0.354038
-0.206225 -0.455099 -0.214948
-0.159529 -0.467134 -0.218617
-0.307269 -0.918217 -0.277796
-0.164024 -0.23132 -0.132725
-0.219618 -0.535901 -0.219456
-0.084771 -0.103293 -0.0453356
0.0156394 0.348359 0.106354
-0.092914 -0.157414 -0.0852357
-0.126791 -0.28758 -0.134915
-0.126374 -0.248485 -0.159189
-0.281343 -0.815287 -0.195436
-0.241314 -0.585492 -0.17731
-0.0174587 0.113968 0.0511368
-0.122497 -0.337261 -0.186688
0.0503889 0.224838 -0.287889
-0.184104 -0.570564 -0.22085
0.0173661 0.705186 0.235869
0.247638 0.688536 -0.357256
0.0807776 0.324802 -0.298521
0.00855557 0.621081 0.212738
0.173684 0.560081 -0.338794
-0.18545 -0.506442 -0.157159
0.119852 0.374265 -0.300159
-0.170663 -0.26012 -0.156459
0.0118778 0.149434 -0.284026
-0.190859 -0.356104 -0.199965
-0.349792 -0.904078 -0.268352
-0.187293 -0.348761 -0.203909
-0.178982 -0.313262 -0.161788
0.113182 0.396045 -0.316526
-0.0328301 0.055515 0.00210451
-0.0766145 -0.0128535 -0.0471433
-0.160028 -0.259831 -0.197027
-0.121938 -0.259117 -0.122722
0.00353422 0.568768 0.191014
-0.142986 -0.42294 -0.210527
-0.249113 -0.791711 -0.184174
-0.224819 -0.843281 -0.242646
-0.238364 -0.569773 -0.175148
-0.166741 -0.512078 -0.216895
-0.0168889 0.110024 -0.283598
-0.192777 -0.700036 -0.193089
-0.185015 -0.487411 -0.226591
-0.0151558 0.194462 0.0851724
-0.156565 -0.316429 -0.143721
-0.190279 -0.400253 -0.218349
-0.0374984 0.0974337 0.00495409
-0.0235583 0.128383 0.0623398
-0.0202788 0.250589 0.0868862
-0.307789 -0.877881 -0.264989
0.0232945 0.39497 0.125929
-0.071165 -0.0903635 -0.0605284
0.0197276 0.558661 0.171444
0.0218985 0.491368 0.179962
0.0542865 0.286694 -0.272244
-0.218472 -0.752257 -0.183186
-0.119357 -0.319798 -0.171763
-0.320009 -0.948837 -0.204476
-0.255026 -0.835966 -0.270161
0.013834 0.51161 0.185879
-0.200383 -0.439833 -0.168331
-0.242867 -0.57688 -0.185369
-0.000162124 0.895576 0.30851
-0.271802 -0.964776 -0.222814
0.00225861 0.39536 0.133563
0.0877136 0.306545 -0.271872
-0.24256 -0.585356 -0.207574
0.019069 0.151662 -0.263036
-0.0192196 0.117014 0.0195515
-0.0332928 0.115659 -0.272006
0.104971 0.333544 -0.288155
-0.183189 -0.359716 -0.172017
0.221363 0.620984 -0.340886
0.0382718 0.190841 -0.279426
-0.0283433 0.0941871 -0.280863
-0.00821614 0.328856 0.120682
0.0767071 0.338496 -0.287522
0.0191999 0.461751 0.174044
-0.1844 -0.672269 -0.205062
-0.0907061 -0.150231 -0.235997
-0.0741493 -0.0266937 -0.267124
0.146483 0.472245 -0.334311
-0.207962 -0.530002 -0.157835
-0.195736 -0.376499 -0.189092
-0.00730949 0.147453 0.063322
0.181865 0.535747 -0.332964
-0.132334 -0.30286 -0.139847
-0.287249 -0.918199 -0.197902
-0.292811 -0.826091 -0.25592
-0.264338 -0.903302 -0.271426
-0.263898 -0.94659 -0.258383
-0.0426538 0.109064 0.00919391
-0.262834 -0.677255 -0.201787
-0.185071 -0.566896 -0.159409
-0.0873791 -0.128059 -0.243758
-0.0690495 0.0780241 0.0268742
0.0191576 0.322818 0.128812
-0.222464 -0.660254 -0.165831
-0.236952 -0.723967 -0.175174
0.211204 0.62482 -0.350722
-0.165042 -0.272332 -0.136154
-0.163085 -0.504955 -0.214527
-0.0400836 0.128944 0.0181424
-0.274798 -0.783758 -0.195866
-0.23511 -0.636241 -0.235367
-0.168858 -0.440042 -0.159764
-0.0520799 0.0547452 -0.271722
0.160264 0.494822 -0.320743
-0.196568 -0.588001 -0.228547
0.0270386 0.366004 0.120975
-0.256087 -0.83881 -0.189562
-0.281078 -1 -0.233914
-0.114541 -0.0592926 -0.0388367
0.142791 0.482393 -0.335491
0.0594766 0.284463 -0.294757
0.0901358 0.302271 -0.290631
-0.0742567 -0.0448574 -0.223095
-0.0890788 0.0243589 -0.00445702
-0.0714071 -0.00986486 -0.0445333
-0.148201 -0.404824 -0.16678
-0.173789 -0.56199 -0.168104
-0.191031 -0.710548 -0.214893
-0.14001 -0.288406 -0.131121
0.00599538 0.135699 -0.254766
-0.22266 -0.653128 -0.165018
-0.0347771 0.0876938 0.0472396
-0.0986078 -0.0229422 -0.00920717
-0.311548 -0.931762 -0.279433
0.106144 0.350136 -0.303393
-0.154139 -0.266712 -0.204752
0.00182507 0.42954 0.153262
0.0209253 0.302633 0.116252
-0.153237 -0.491795 -0.202095
-0.158545 -0.241319 -0.122547
0.0198968 0.279622 0.0926298
-0.00339049 0.946879 0.334261
0.0139429 0.529258 0.190078
-0.269664 -0.769457 -0.253196
0.00173032 0.723847 0.249237
-0.227097 -0.82511 -0.200067
-0.0863623 -0.116033 -0.0543833
-0.0619838 0.0818219 0.00290872
-0.064541 -0.0591127 -0.0532741
-0.330017 -0.903856 -0.245058
-0.0945008 -0.0430746 -0.256408
-0.120318 -0.210914 -0.0985377
-0.1626 -0.54714 -0.189201
-0.179835 -0.427265 -0.226172
-0.0530494 0.0179411 -0.0226074
0.0276886 0.396971 0.154995
-0.169454 -0.349515 -0.221989
-0.170815 -0.267917 -0.16685
-0.105165 -0.106781 -0.251115
-0.211906 -0.444052 -0.188695
-0.147761 -0.364815 -0.163787
-0.278518 -0.761611 -0.21011
-0.201628 -0.763606 -0.206766
0.183007 0.542009 -0.330909
-0.0254655 0.129219 -0.277755
-0.156456 -0.316029 -0.216169
-0.15388 -0.449741 -0.168364
-0.205591 -0.495576 -0.22248
0.0447732 0.240408 -0.261365
-0.211019 -0.438688 -0.191883
0.0737679 0.331167 -0.286527
-0.255954 -0.900996 -0.207089
0.00821849 0.712111 0.246267
0.0508332 0.269612 -0.266399
-0.191349 -0.584623 -0.158276
-0.0786092 -0.0966271 -0.0458784
-0.0395615 0.0376871 -0.00716265
0.186658 0.564635 -0.330853
-0.0943583 -0.166583 -0.0928775
-0.164167 -0.274081 -0.196418
0.162443 0.501041 -0.32223
-0.16192 -0.256189 -0.185363
-0.104177 -0.152193 -0.241143
0.0344924 0.237761 -0.290592
-0.120872 -0.303095 -0.149744
-0.220718 -0.498494 -0.175179
-0.126864 -0.0982385 -0.0604944
-0.116759 -0.0633543 -0.0438299
0.054334 0.280623 -0.292523
-0.192639 -0.608206 -0.163055
0.0176957 0.537939 0.165156
-0.266058 -0.691393 -0.207666
-0.000359539 0.177648 -0.259875
0.214623 0.628833 -0.345041
0.151108 0.466541 -0.32931
-0.274513 -0.916003 -0.275691
0.00382082 0.775767 0.251177
0.0447086 0.210462 -0.265037
-0.106095 -0.0341172 -0.0233975
-0.120871 -0.207858 -0.176599
0.0288328 0.538024 0.176589
0.0471674 0.208421 -0.271124
-0.0141467 0.0785246 -0.248725
0.282173 0.727159 -0.360858
-0.0020381 0.235092 0.101241
0.00617954 0.720483 0.22913
0.0272289 0.594938 0.193116
0.0193233 0.612462 0.209779
-0.101279 -0.172926 -0.233294
-0.237117 -0.555289 -0.201293
0.0101625 0.27068 0.111947
-0.0888395 -0.00952008 0.00462578
-0.03993 0.0744555 -0.002568
-0.278889 -0.822008 -0.193059
0.108754 0.41268 -0.300005
-0.310197 -0.848178 -0.227688
-0.102252 -0.212802 -0.133085
-0.0784582 -0.0555469 -0.221455
0.00433885 0.467535 0.152689
-0.170643 -0.586142 -0.184684
-0.0860954 -0.104381 -0.252615
-0.0809583 0.0247375 0.0167977
-0.0655347 0.0166202 -0.268533
-0.00150917 0.16342 0.0678469
-0.198101 -0.742341 -0.229404
-0.074144 -0.0139535 -0.266875
0.0310594 0.464905 0.161792
-0.189607 -0.597728 -0.162165
-0.122247 -0.240335 -0.112698
-0.138987 -0.238052 -0.167907
-0.34215 -0.913552 -0.25073
-0.190163 -0.491155 -0.22655
-0.240451 -0.561918 -0.190867
-0.284605 -0.869782 -0.1937
-0.00266328 0.182335 -0.269801
-0.0944779 -0.171102 -0.0996645
-0.331148 -0.952778 -0.275997
0.0226732 0.598959 0.184639
0.288442 0.767528 -0.356573
-0.305248 -0.942277 -0.200535
-0.0809872 0.0215102 -0.0223394
-0.0244226 0.134949 0.0650923
0.0153757 0.550459 0.195267
-0.291393 -0.815742 -0.205203
-0.311626 -0.858532 -0.219448
-0.0988741 -0.154917 -0.239009
-0.0383068 0.164344 0.040203
-0.16224 -0.28604 -0.136729
-0.0453614 0.122102 0.0551264
-0.196505 -0.56581 -0.226159
0.0037342 0.693854 0.238584
-0.0170891 0.271867 0.0956343
-0.0990679 -0.213949 -0.201065
