-0.0355 -0.5413 -0.0700
0.0011 0.5616 -0.0066
-0.1150 -0.0548 -0.0102
-0.1110 0.2896 -0.0714
0.0238 -0.3960 -0.0457
-0.0908 0.0393 0.0146
-0.1171 0.1352 -0.0717
0.0205 -0.0868 -0.0975
-0.0986 -0.2373 -0.0757
-0.0300 -0.6574 -0.0410
0.0294 -0.5681 0.0157
0.0341 -0.6789 -0.0363
-0.0637 0.6166 0.0031
-0.0339 0.1277 0.0082
-0.0923 -0.2122 -0.0820
-0.0100 -0.3028 -0.0904
0.0139 -0.2528 -0.0784
-0.0958 -0.4044 -0.0138
-0.0751 -0.6562 -0.0070
0.0317 -0.6116 -0.0534
-0.0325 0.5843 -0.0850
-0.0068 0.0302 -0.0033
-0.0631 -0.6577 0.0624
0.0134 0.1713 -0.0389
-0.0897 -0.5347 -0.0268
-0.0343 0.7162 -0.0547
-0.1010 -0.6160 -0.0106
-0.0919 -0.4461 -0.0191
-0.1016 0.5398 -0.0916
0.0027 -0.5704 -0.0660
0.0235 -0.2057 -0.0243
-0.0901 0.6028 -0.1141
0.0069 -0.2943 -0.0827
-0.0027 0.5922 -0.0109
-0.0614 0.2604 -0.1077
0.0244 -0.2783 -0.0169
-0.0859 0.4853 -0.0972
-0.0513 -0.0876 -0.1123
-0.0570 -0.2442 -0.0988
0.0254 -0.3195 -0.0476
0.0240 -0.0397 -0.0935
-0.0425 -0.6269 -0.0384
-0.0290 0.3875 0.0013
0.0168 -0.4402 -0.0470
-0.0935 -0.0746 -0.0902
-0.0992 0.0548 0.0075
0.0326 -0.6296 -0.0122
-0.0647 -0.7060 0.0151
-0.0714 0.0462 -0.1096
0.0358 -0.5293 -0.0233
-0.0577 0.4888 -0.1022
-0.0243 0.4500 -0.0884
0.0166 -0.5091 -0.0492
-0.0676 0.6047 -0.0365
-0.0934 0.0822 0.0099
0.0340 -0.1991 -0.0584
0.0446 -0.5795 0.0045
0.0271 -0.1208 -0.0857
-0.0245 -0.3705 -0.0948
0.0025 -0.1906 -0.0024
-0.0727 0.7114 -0.1258
-0.0366 0.6835 -0.1138
-0.0239 -0.6729 -0.0460
-0.0899 0.7109 -0.0035
0.0083 -0.5845 -0.0676
-0.0492 -0.4272 -0.0822
-0.0980 0.2701 -0.0526
-0.1138 0.7030 -0.0967
-0.0007 -0.0148 -0.0105
0.0214 -0.6041 0.0299
-0.0220 -0.3906 0.0252
-0.0171 0.5178 -0.0757
-0.1096 0.7057 -0.0256
-0.0032 0.5645 -0.0488
-0.1018 -0.2738 -0.0607
-0.0285 0.2636 -0.1042
0.0122 0.3940 -0.0274
-0.0380 0.6364 0.0013
-0.1221 -0.0244 -0.0295
-0.0613 -0.5384 0.0194
-0.0225 0.2500 -0.1061
-0.1148 0.0057 -0.0159
-0.0019 -0.1008 -0.0030
-0.0464 -0.0021 -0.1157
-0.0822 0.1594 -0.1048
0.0175 -0.1543 -0.0969
-0.0826 0.6546 -0.1068
-0.0982 -0.5767 -0.0184
-0.0028 -0.5659 0.0307
-0.0634 0.7092 -0.1242
0.0090 0.3128 -0.0481
-0.0112 -0.6763 -0.0540
-0.0006 0.3015 -0.0747
-0.1113 -0.1105 -0.0727
0.0317 0.0161 -0.0606
-0.1073 -0.3042 -0.0296
-0.1111 0.6782 -0.0995
-0.1136 0.7360 -0.0646
0.0136 -0.3986 -0.0620
-0.0952 -0.6300 0.0218
-0.0503 0.4392 -0.1071
-0.0737 -0.1792 -0.0952
-0.0399 -0.4994 -0.0768
-0.0681 -0.1707 0.0323
-0.0502 -0.6032 0.0551
-0.0930 0.1131 0.0082
-0.1208 0.6828 -0.0830
0.0171 0.1289 -0.0383
0.0160 -0.5117 -0.0294
-0.0188 0.3813 -0.0909
-0.0949 0.5749 -0.0687
0.0122 -0.6149 0.0367
-0.1158 0.1380 -0.0550
-0.1127 0.3461 -0.0757
-0.0504 -0.6742 -0.0217
-0.0587 -0.3214 0.0321
0.0180 0.0861 -0.0871
-0.0842 -0.1966 0.0263
0.0416 -0.6094 -0.0161
0.0258 -0.3007 -0.0213
-0.0022 -0.4551 0.0192
-0.0147 -0.4913 -0.0764
-0.0041 -0.6980 -0.0494
-0.1001 0.3494 -0.0607
-0.1163 -0.1001 -0.0509
-0.0882 -0.4044 -0.0627
-0.0169 -0.6529 -0.0561
-0.0464 0.6038 0.0038
-0.0103 0.5797 0.0076
0.0002 0.5201 0.0013
-0.1024 0.5392 -0.0754
-0.0772 0.6021 -0.1113
-0.0199 0.6402 -0.0282
-0.1162 -0.0748 -0.0590
-0.0892 -0.1484 0.0211
-0.0559 -0.5418 0.0232
-0.1207 0.0879 -0.0558
-0.0805 0.5441 -0.1068
-0.0560 -0.5666 -0.0592
-0.0338 -0.5761 -0.0661
-0.0920 0.5753 -0.1007
-0.0807 0.1076 0.0148
0.0025 0.5821 -0.0342
-0.0206 0.6109 -0.0046
-0.0157 -0.5368 0.0252
-0.0818 -0.3721 -0.0765
-0.0555 0.4654 -0.0136
-0.1149 0.6728 -0.0485
-0.1178 0.6609 -0.0717
-0.0071 0.5293 -0.0586
0.0043 -0.0124 -0.1176
-0.1128 0.7346 -0.0424
-0.0091 0.0663 -0.0002
-0.1001 0.5897 -0.0737
-0.1084 0.6166 -0.0765
0.0006 -0.3084 -0.0934
-0.0158 0.6164 -0.0081
-0.0620 -0.4981 0.0157
-0.0083 0.3891 -0.0763
-0.0774 0.6954 0.0003
0.0114 -0.1539 -0.0136
-0.0279 0.4539 0.0010
0.0341 -0.6392 -0.0420
-0.0993 0.5736 -0.0846
-0.0705 0.3282 -0.1074
-0.1005 0.4971 -0.0826
-0.1065 -0.1834 -0.0692
-0.0391 0.4853 -0.0957
0.0142 0.2031 -0.0788
-0.0332 0.3317 -0.1049
-0.0617 -0.5784 -0.0526
-0.0563 -0.5505 -0.0629
-0.1030 0.7343 -0.0941
0.0221 -0.1118 -0.0367
-0.0021 -0.0034 -0.1219
-0.1184 -0.0346 -0.0614
-0.0485 -0.1312 0.0252
-0.0491 -0.0246 0.0221
-0.0622 0.3404 -0.1077
-0.1069 -0.3298 0.0133
-0.0516 0.5444 -0.0022
-0.1042 0.6000 -0.0794
0.0019 0.1510 -0.1091
-0.0215 -0.4609 0.0208
0.0200 -0.6263 0.0262
0.0107 -0.4971 0.0249
-0.0655 0.7080 -0.0310
0.0096 0.2050 -0.0287
0.0091 0.2819 -0.0355
-0.0096 -0.6469 0.0516
-0.0315 0.7415 -0.0828
-0.0863 -0.4392 -0.0022
-0.0908 -0.4811 -0.0280
-0.0866 0.2267 -0.0358
-0.0194 -0.6993 -0.0398
-0.0263 0.5931 0.0108
-0.1074 -0.0258 -0.0045
-0.0063 -0.0391 -0.0037
-0.0753 -0.5936 -0.0363
-0.0666 0.4853 -0.1015
-0.0832 -0.4764 -0.0545
0.0050 0.3055 -0.0016
-0.0949 0.3936 -0.0510
0.0141 -0.5574 0.0258
0.0052 0.4125 -0.0116
0.0148 0.2227 -0.0450
-0.0091 -0.3748 -0.0912
-0.0455 -0.5053 -0.0738
-0.0470 -0.6445 -0.0316
-0.0495 0.6392 0.0170
-0.0686 0.5558 -0.0338
-0.0903 -0.5567 -0.0112
-0.0053 0.0388 -0.0056
-0.0503 -0.6302 0.0631
-0.0616 0.2911 -0.1098
-0.0358 -0.4371 -0.0862
-0.0179 -0.1564 -0.1193
-0.0129 -0.3784 0.0192
-0.0891 0.3066 -0.0436
-0.0404 0.5475 0.0066
-0.0755 -0.4491 -0.0697
-0.1171 0.0036 -0.0702
-0.0252 -0.1869 -0.1092
-0.1025 0.6386 -0.0963
0.0133 -0.5377 -0.0548
-0.0427 0.6403 0.0140
0.0417 -0.6871 0.0021
-0.0410 0.7218 -0.1150
-0.0820 -0.6665 0.0487
0.0023 -0.3923 -0.0838
-0.1130 0.6466 -0.0632
-0.0384 0.6100 0.0039
0.0109 0.4314 -0.0457
-0.0217 -0.4426 0.0212
-0.0268 0.5183 -0.0854
-0.0636 -0.4100 -0.0811
-0.0589 -0.2957 0.0314
-0.0115 -0.1441 0.0064
0.0185 -0.4634 -0.0353
-0.0603 -0.1616 -0.1036
-0.0003 0.5817 -0.0069
-0.0770 -0.5728 -0.0425
-0.1134 -0.2558 -0.0203
-0.0317 -0.0714 -0.1200
-0.1079 0.1268 -0.0933
-0.0609 0.6643 -0.1197
0.0118 0.3208 -0.0177
-0.0886 -0.4978 -0.0451
-0.1167 0.0914 -0.0781
0.0226 -0.4000 0.0028
-0.0254 -0.5647 0.0264
0.0154 0.1563 -0.0866
-0.0651 0.4214 -0.1059
0.0211 -0.6787 0.0581
-0.0426 0.6222 -0.0913
-0.0917 0.5088 -0.0950
-0.0905 0.2211 -0.1041
0.0189 -0.4866 -0.0428
-0.0250 -0.2661 -0.1015
0.0066 0.3775 -0.0103
-0.0512 0.5916 -0.0953
-0.0825 -0.5252 -0.0518
-0.0543 -0.3272 -0.0925
0.0004 -0.5507 -0.0637
0.0279 -0.7088 0.0029
-0.0027 0.5055 -0.0013
-0.0015 0.5140 -0.0128
-0.0051 -0.5288 0.0254
0.0130 0.2404 -0.0543
0.0190 -0.4745 -0.0155
0.0114 -0.6614 0.0427
-0.0581 0.3307 -0.0028
-0.1073 0.1763 -0.0397
-0.0731 0.1874 0.0093
-0.0547 0.5883 -0.0128
0.0277 -0.0222 -0.0460
0.0267 -0.5071 0.0032
-0.0232 0.5834 -0.0758
0.0235 -0.5763 -0.0542
-0.1033 0.3069 -0.0670
-0.1058 -0.2223 -0.0568
-0.1042 -0.3096 -0.0481
-0.0486 0.6600 -0.1158
-0.1025 0.6354 -0.0474
-0.1139 -0.1410 -0.0350
-0.1135 -0.0297 -0.0794
-0.0037 -0.5364 -0.0656
0.0124 -0.3217 -0.0710
-0.0008 0.0700 -0.0111
-0.0934 -0.3243 -0.0680
-0.0973 -0.1241 0.0131
0.0238 0.0003 -0.0874
-0.1101 -0.2228 -0.0345
-0.0987 0.0604 -0.0969
-0.0476 -0.4604 -0.0790
-0.0349 -0.5948 -0.0591
-0.0116 0.3107 0.0157
-0.0181 0.4810 -0.0812
0.0185 -0.4669 0.0030
-0.0875 0.1679 -0.1032
-0.0913 0.2936 -0.1004
-0.0327 0.0656 -0.1235
-0.0994 -0.5937 -0.0040
0.0022 0.6000 -0.0260
-0.1054 0.2203 -0.0607
0.0311 -0.2324 -0.0379
-0.0079 0.6929 -0.0890
-0.0922 -0.5455 -0.0211
-0.0818 -0.0478 -0.0973
0.0239 -0.4388 -0.0082
-0.1183 0.1109 -0.0741
-0.0841 -0.5315 -0.0036
-0.0123 0.0977 0.0058
-0.0327 -0.5242 0.0203
-0.0291 0.2947 0.0184
-0.0826 0.5722 -0.0533
-0.1061 0.4312 -0.0804
-0.0956 0.5101 -0.0666
0.0275 -0.6041 0.0236
-0.0795 0.3797 -0.1046
-0.0642 -0.6950 0.0544
0.0020 -0.6634 -0.0609
-0.1033 0.0154 0.0019
-0.0118 0.7151 -0.0854
-0.0948 -0.1521 -0.0852
-0.1075 -0.3426 -0.0163
-0.0145 0.6376 -0.0379
-0.0722 -0.4921 -0.0660
-0.0361 -0.1120 0.0210
-0.0226 0.6520 -0.0375
-0.1007 0.6091 -0.0615
-0.0701 -0.3318 -0.0864
-0.0798 -0.5455 0.0005
-0.0694 0.0054 0.0211
0.0020 0.1113 -0.1166
-0.1024 0.4650 -0.0882
-0.0005 0.5219 0.0017
0.0124 0.2548 -0.0408
-0.0751 -0.5655 -0.0469
-0.0365 -0.2809 0.0220
-0.1186 0.0469 -0.0411
-0.0583 -0.5229 -0.0674
-0.0282 0.6786 -0.1032
-0.0054 -0.5041 -0.0704
0.0042 -0.5592 0.0278
-0.0040 0.1854 -0.0886
-0.0636 0.3151 -0.0081
-0.0313 0.5677 -0.0860
-0.1120 0.7294 -0.0305
0.0061 0.2960 -0.0134
-0.1070 0.4716 -0.0776
-0.0637 0.6390 -0.1172
-0.0394 -0.6907 -0.0300
0.0283 -0.4065 -0.0184
-0.0192 -0.5715 -0.0718
-0.0668 -0.5908 -0.0413
0.0070 0.2459 -0.0182
-0.0357 -0.3920 0.0189
-0.0846 -0.2830 -0.0857
-0.0632 -0.4751 -0.0718
-0.1146 0.6576 -0.0889
0.0160 -0.6789 0.0621
0.0039 0.5349 -0.0332
-0.0089 -0.4564 0.0214
0.0173 -0.6927 0.0528
-0.0104 -0.4209 -0.0871
0.0191 -0.1089 -0.0996
-0.0004 0.2776 -0.0935
-0.0249 0.7241 -0.0760
-0.0847 -0.0006 -0.0989
-0.1006 0.2126 -0.0979
-0.1077 0.3843 -0.0687
-0.0780 0.4656 -0.1023
-0.0769 0.5110 -0.0405
-0.0240 -0.5001 -0.0749
0.0285 -0.3393 -0.0080
-0.0584 0.6964 -0.0289
-0.0950 0.4244 -0.0943
-0.0834 -0.5824 -0.0347
-0.0501 0.7011 -0.1191
-0.1091 -0.1760 0.0001
-0.0980 0.6590 -0.0193
0.0013 -0.6426 -0.0678
-0.0443 -0.5935 -0.0537
-0.0522 0.2791 -0.1088
-0.0887 -0.5961 0.0261
-0.1154 0.1997 -0.0612
-0.1070 0.2560 -0.0918
-0.0955 0.1362 0.0029
-0.0709 0.1126 -0.1091
-0.0784 0.2675 -0.0233
0.0002 0.5405 -0.0127
-0.1111 0.7290 -0.0874
-0.1034 0.6551 -0.1033
-0.0452 0.2793 -0.1090
-0.0684 -0.5340 -0.0626
-0.1191 0.7114 -0.0470
-0.0336 0.6805 -0.0423
0.0245 -0.2017 -0.0777
-0.0374 -0.6605 -0.0348
-0.1122 0.2473 -0.0686
-0.0404 0.7296 -0.1088
-0.0896 0.5207 -0.0999
-0.0352 -0.5616 -0.0669
0.0255 -0.0778 -0.0802
-0.0583 -0.6238 -0.0263
-0.0869 0.6283 -0.1125
0.0149 -0.4613 -0.0525
-0.0700 -0.0398 -0.1044
-0.1194 0.0124 -0.0491
-0.0813 -0.1977 -0.0923
-0.0063 0.3383 -0.0819
-0.0109 0.4522 -0.0750
-0.0305 0.6469 -0.1078
-0.0568 -0.0176 -0.1121
0.0283 -0.2930 -0.0442
-0.1185 0.7229 -0.0659
-0.0616 -0.1353 0.0280
-0.0324 0.6230 -0.0030
-0.0640 -0.6917 0.0568
-0.0251 -0.2934 -0.1002
-0.0270 0.2125 -0.1133
-0.0903 0.4469 -0.0992
-0.0088 0.6204 -0.0258
-0.0671 -0.2470 0.0331
-0.1005 0.7202 -0.1131
0.0088 0.4716 -0.0359
-0.0043 0.5948 -0.0049
-0.1118 0.3070 -0.0831
-0.0690 0.5177 -0.1050
-0.0881 0.6455 -0.1083
-0.0766 0.3417 -0.0278
-0.0768 0.2394 -0.0147
-0.0598 -0.6109 -0.0364
-0.0271 0.6708 -0.0541
-0.1027 0.6214 -0.0868
-0.0325 0.6457 -0.0211
-0.0903 -0.3081 0.0324
-0.0548 -0.4273 0.0180
-0.0042 0.4292 -0.0675
-0.0600 -0.3718 0.0217
-0.0022 -0.6079 0.0427
-0.0715 0.4809 -0.0293
-0.0692 0.6827 -0.1238
-0.0549 0.1314 0.0145
-0.0374 -0.6255 -0.0408
-0.0176 0.6279 -0.0158
-0.0858 0.5493 -0.0589
-0.0095 0.6063 -0.0557
-0.1240 0.7091 -0.0815
-0.0205 -0.5546 -0.0683
-0.1040 0.7315 -0.0171
-0.0023 0.6172 -0.0391
-0.0523 0.6240 -0.1124
-0.0458 -0.5577 -0.0658
0.0030 0.1677 -0.0145
-0.0628 0.6985 -0.0235
-0.0641 -0.0988 -0.1065
-0.0350 -0.0479 0.0188
-0.0416 -0.2532 0.0294
0.0025 -0.4551 -0.0726
0.0103 -0.5597 -0.0617
-0.0387 -0.3819 -0.0920
-0.0518 0.7137 -0.1224
-0.0469 -0.1588 -0.1072
-0.0687 -0.0288 0.0263
-0.0464 -0.6616 -0.0291
-0.0189 0.6241 -0.0618
-0.0425 0.7076 -0.1177
0.0231 -0.5539 -0.0491
-0.0246 0.6133 -0.0764
-0.0399 0.7082 -0.0426
-0.0742 0.2373 -0.1068
-0.0645 -0.6627 -0.0116
-0.1023 0.3372 -0.0927
0.0011 -0.6444 0.0426
-0.0140 -0.5813 0.0468
-0.0688 0.3853 -0.0190
0.0009 0.5793 -0.0138
-0.0077 0.6121 -0.0137
-0.0064 -0.6647 0.0670
-0.1192 0.6967 -0.0950
0.0000 0.4940 -0.0166
-0.0361 0.5691 -0.0900
0.0174 -0.6928 0.0530
-0.0595 -0.6143 -0.0321
0.0110 0.0168 -0.0238
-0.0569 0.6289 0.0172
-0.0727 -0.5696 0.0325
-0.0446 -0.1789 0.0343
0.0218 -0.5426 0.0158
-0.0737 -0.4671 0.0080
-0.1109 0.7108 -0.0987
-0.0258 0.5666 0.0081
-0.0223 0.5267 0.0102
-0.1164 -0.1308 -0.0116
-0.1117 0.0448 -0.0852
-0.0288 0.6586 -0.0336
-0.0569 0.0798 -0.1146
-0.0021 0.2424 -0.0837
-0.0920 -0.4599 -0.0389
0.0088 0.3380 -0.0050
0.0079 0.2870 -0.0541
-0.0467 0.0207 0.0204
0.0104 0.0810 -0.1038
0.0384 -0.5899 0.0195
-0.0191 -0.5902 -0.0689
-0.0615 0.1926 -0.1129
0.0056 0.5035 -0.0472
-0.0423 -0.2464 -0.1005
0.0355 -0.6989 -0.0092
-0.0367 0.6531 -0.1089
-0.0655 -0.3561 0.0306
0.0300 -0.0809 -0.0582
-0.0758 -0.1063 -0.1004
0.0285 -0.5826 0.0284
-0.0928 -0.5729 0.0016
-0.0072 0.4927 -0.0658
-0.0854 -0.5613 0.0042
0.0166 -0.5407 -0.0061
0.0212 -0.1797 -0.0914
-0.0925 -0.0128 0.0127
0.0155 -0.0581 -0.1045
-0.0690 0.6667 -0.1146
-0.1172 0.7270 -0.0555
0.0184 -0.5946 -0.0618
0.0018 0.5560 -0.0024
-0.0048 0.0703 -0.1224
-0.0901 0.7363 -0.0043
-0.0495 0.6837 -0.1210
0.0082 -0.3504 -0.0840
-0.0873 -0.4738 -0.0097
-0.1016 0.4310 -0.0640
-0.0917 -0.5163 -0.0334
0.0106 0.5492 -0.0112
-0.0376 -0.3515 -0.0959
0.0224 0.0459 -0.0417
0.0171 -0.1401 -0.1042
-0.0354 0.0873 -0.1185
-0.0657 -0.7002 0.0462
-0.0197 -0.5031 0.0218
0.0123 -0.4897 -0.0583
-0.0699 -0.6911 0.0512
0.0073 -0.4138 0.0170
0.0131 0.5592 -0.0160
-0.0955 -0.2212 0.0202
-0.1097 0.0501 -0.0068
-0.0910 -0.6396 -0.0083
-0.1190 0.0488 -0.0668
0.0116 -0.2248 -0.0076
-0.0623 -0.5505 0.0223
-0.0967 -0.3834 -0.0239
-0.1100 0.6415 -0.0834
-0.0625 -0.6314 0.0566
-0.0161 -0.6264 0.0465
0.0034 0.5636 -0.0205
-0.1019 -0.2939 -0.0066
-0.1130 0.1327 -0.0148
-0.0878 -0.5434 -0.0414
0.0039 0.3461 -0.0606
-0.0787 0.4214 -0.0375
-0.0932 -0.4238 -0.0303
-0.0768 -0.0478 0.0206
-0.0408 0.6284 -0.1094
-0.0350 0.0027 -0.1230
-0.1042 0.7402 -0.0287
-0.0036 0.4653 -0.0079
0.0395 -0.6824 0.0284
-0.0238 0.5451 -0.0817
-0.0772 0.6716 -0.1071
-0.0853 -0.2477 0.0289
-0.0281 0.6443 -0.0220
-0.0418 0.1589 -0.1128
0.0341 -0.6204 -0.0018
-0.0275 -0.0347 -0.1264
0.0222 -0.6897 0.0497
-0.0951 -0.3900 -0.0428
-0.1010 -0.3505 -0.0372
-0.0756 -0.6008 -0.0300
-0.0630 0.6053 -0.1100
-0.1220 -0.0629 -0.0397
-0.0585 -0.6494 -0.0193
-0.0648 -0.5277 0.0114
0.0205 -0.5775 0.0370
0.0160 -0.4958 -0.0225
-0.0210 -0.2939 0.0174
-0.1072 0.6233 -0.1145
-0.0294 -0.1938 0.0214
0.0250 -0.3738 -0.0555
-0.0720 0.1795 -0.1081
-0.0130 -0.0549 -0.0024
-0.0861 0.3885 -0.1024
0.0241 -0.6350 0.0100
-0.0513 -0.3975 -0.0865
0.0323 -0.5991 0.0269
0.0305 -0.3582 -0.0113
-0.0104 0.4114 0.0014
-0.0466 -0.5352 0.0228
0.0261 -0.6924 -0.0409
-0.0336 0.3302 0.0176
-0.0524 0.3083 0.0076
-0.0336 -0.4348 0.0184
0.0271 0.0495 -0.0780
0.0383 -0.5783 -0.0371
-0.1162 0.0874 -0.0239
0.0334 -0.6499 -0.0046
-0.0248 0.5413 0.0077
0.0032 -0.1947 -0.1102
-0.0136 0.4608 -0.0021
0.0286 -0.1591 -0.0483
0.0269 0.0940 -0.0624
-0.0974 0.5560 -0.0728
-0.0425 0.7076 -0.1177
-0.0328 0.6020 -0.0810
-0.0813 0.5299 -0.0502
0.0051 -0.5183 -0.0630
0.0011 0.5139 -0.0258
-0.0419 0.1694 0.0118
0.0216 -0.4407 -0.0258
-0.0847 -0.5124 -0.0162
-0.0111 0.5818 -0.0554
-0.0827 -0.6680 0.0043
0.0091 -0.4269 -0.0674
0.0294 0.0625 -0.0502
0.0114 0.0213 -0.1047
-0.1201 0.6828 -0.0674
0.0097 -0.3471 0.0087
-0.0142 -0.6632 -0.0582
-0.0634 -0.1366 -0.1047
-0.1027 -0.0563 0.0053
-0.0735 -0.5566 -0.0522
-0.0986 0.7283 -0.1047
0.0119 0.3520 -0.0384
0.0234 -0.7048 0.0285
-0.0952 -0.5797 0.0140
0.0219 -0.4068 -0.0393
0.0106 0.4163 -0.0391
-0.0303 -0.6262 -0.0416
0.0274 -0.2403 -0.0632
-0.0698 -0.7048 0.0306
-0.0787 -0.5509 0.0073
-0.0895 0.7400 -0.0086
-0.1088 0.0898 -0.0045
-0.0923 0.3832 -0.0983
-0.0080 -0.2459 -0.0939
-0.0610 0.5880 -0.0284
0.0436 -0.6008 0.0070
-0.0003 0.2173 -0.0090
-0.1129 0.2588 -0.0728
-0.1072 0.6698 -0.0387
0.0308 -0.0260 -0.0716
-0.0068 -0.3436 -0.0986
0.0317 -0.1226 -0.0664
-0.0886 -0.5882 -0.0276
-0.0451 0.1317 0.0104
0.0329 -0.3334 -0.0269
-0.0432 0.5198 0.0028
-0.0452 -0.5091 0.0177
-0.1120 -0.1438 -0.0609
-0.0619 0.6989 -0.1239
-0.0062 -0.6264 0.0442
-0.0332 0.6333 -0.1121
-0.0591 0.1637 0.0131
-0.0510 0.5923 -0.0034
-0.1069 0.3808 -0.0882
-0.0980 -0.3526 -0.0557
0.0237 0.1351 -0.0769
0.0171 -0.5861 0.0348
-0.0927 0.1851 -0.0133
-0.0282 -0.2250 -0.1031
-0.1068 -0.0885 -0.0009
-0.0175 0.6644 -0.0947
-0.1078 -0.2008 -0.0118
-0.0910 -0.0028 -0.0953
0.0162 0.0489 -0.0955
-0.0200 0.6405 -0.0527
-0.0768 -0.5096 0.0000
-0.0743 -0.2108 -0.0941
-0.0483 0.6700 -0.0290
-0.1064 0.7270 -0.1000
-0.0494 -0.5985 -0.0489
-0.1098 -0.1889 -0.0476
-0.1108 -0.2643 -0.0396
-0.0886 0.6837 0.0020
-0.1157 -0.0624 -0.0647
-0.0721 -0.2689 -0.0913
0.0112 -0.0585 -0.0214
-0.0433 0.2143 -0.1115
-0.0320 0.7031 -0.1101
0.0129 0.1209 -0.1008
0.0028 -0.1044 -0.1140
0.0363 -0.5504 -0.0288
-0.0117 0.4173 -0.0801
-0.1100 0.4171 -0.0755
-0.0612 0.5229 -0.0240
-0.0430 0.5467 -0.0944
-0.0083 0.5480 0.0090
-0.0180 0.5661 -0.0704
0.0254 -0.1585 -0.0719
-0.0337 -0.1112 -0.1093
-0.0759 0.6313 -0.1123
-0.0099 0.1973 0.0124
0.0104 0.1080 -0.0245
-0.0928 -0.5634 -0.0292
-0.0110 -0.5426 -0.0704
-0.0765 0.3019 -0.1032
-0.0511 0.3747 -0.1112
0.0185 -0.4246 -0.0439
0.0039 0.4665 -0.0560
-0.0303 0.7004 -0.0542
0.0090 0.3837 -0.0547
-0.0978 -0.6712 0.0219
-0.0716 0.5532 -0.1063
-0.0847 0.4642 -0.0504
-0.1010 0.5993 -0.0935
0.0027 0.2538 -0.0010
-0.0448 -0.6721 -0.0280
-0.0208 -0.1064 0.0146
-0.0114 0.1325 -0.1213
-0.0806 0.5848 -0.0526
-0.0524 -0.6375 -0.0280
-0.0252 0.7310 -0.0928
0.0046 0.3403 -0.0029
0.0092 0.0333 -0.1113
0.0240 0.1752 -0.0692
0.0064 -0.4438 0.0192
0.0218 -0.2858 -0.0664
-0.0018 0.5205 -0.0088
0.0047 0.4480 -0.0214
-0.1142 0.6223 -0.0736
-0.1094 0.7288 -0.0212
-0.1156 0.0965 -0.0808
-0.0567 0.0090 -0.1108
-0.0071 -0.4796 -0.0749
0.0249 -0.5325 -0.0394
-0.0018 -0.0324 -0.1214
-0.1130 0.1753 -0.0852
-0.1196 -0.0960 -0.0232
-0.0848 0.0721 -0.1024
0.0141 -0.6076 -0.0667
0.0212 0.0879 -0.0428
-0.0948 -0.3713 -0.0068
-0.1176 -0.1727 -0.0183
-0.0243 0.6066 -0.0718
0.0364 -0.6009 -0.0395
0.0264 0.1371 -0.0509
-0.0813 0.0246 0.0153
-0.1173 -0.1519 -0.0132
-0.0841 -0.3643 0.0218
0.0389 -0.6585 -0.0262
-0.0578 0.1441 -0.1151
-0.0729 -0.7038 0.0089
-0.1144 0.1743 -0.0674
-0.0722 -0.6972 0.0433
-0.0327 0.7346 -0.1000
-0.0954 -0.6166 0.0222
-0.0903 -0.2603 -0.0819
0.0165 -0.0101 -0.0980
-0.0234 -0.4299 -0.0881
-0.0096 0.6021 -0.0007
0.0215 -0.2120 -0.1031
-0.0344 0.1836 0.0166
-0.0232 -0.5405 -0.0728
0.0092 0.3671 -0.0134
0.0103 0.2579 -0.0634
-0.0598 0.6854 -0.1266
-0.0792 -0.5040 -0.0603
0.0343 -0.3754 -0.0333
-0.0012 0.1272 -0.0038
0.0296 -0.6101 0.0171
-0.0221 0.6010 -0.0651
0.0363 -0.6111 -0.0315
0.0359 -0.6838 -0.0271
-0.0899 -0.3028 -0.0781
0.0219 -0.6624 -0.0561
-0.0625 0.6213 -0.1153
-0.1020 0.1271 -0.0963
0.0350 -0.6936 0.0139
-0.0913 -0.4252 -0.0491
-0.0028 -0.5745 -0.0689
-0.0352 0.0460 0.0140
0.0466 -0.5875 -0.0058
0.0195 -0.3149 -0.0025
-0.0592 0.5680 -0.1009
-0.0522 0.6356 -0.1155
-0.0671 -0.7015 0.0445
-0.0351 0.4149 -0.1016
-0.0263 0.7175 -0.1001
-0.0359 -0.6333 -0.0393
-0.0122 0.6268 -0.0253
-0.1131 0.7211 -0.0986
0.0240 -0.7085 -0.0260
-0.0516 -0.6113 -0.0404
-0.1118 0.2203 -0.0767
-0.0387 -0.3031 -0.1020
-0.0028 0.6031 -0.0107
-0.0685 -0.6919 0.0056
-0.0163 -0.6093 0.0492
-0.0897 -0.0935 0.0170
-0.0690 -0.5898 0.0457
