-0.0242 -0.5221 -0.0362
-0.0378 0.5280 -0.0462
-0.0731 -0.0404 -0.0378
-0.0798 0.2947 -0.0662
-0.0055 -0.3903 -0.0362
-0.0639 0.0258 -0.0290
-0.0805 0.1427 -0.0630
-0.0172 -0.0937 -0.0672
-0.0635 -0.2249 -0.0549
-0.0211 -0.6450 -0.0236
0.0177 -0.5636 0.0076
0.0305 -0.6663 -0.0213
-0.0681 0.5870 -0.0544
-0.0425 0.1182 -0.0307
-0.0611 -0.2022 -0.0586
-0.0215 -0.2951 -0.0605
-0.0135 -0.2487 -0.0579
-0.0588 -0.3914 -0.0206
-0.0574 -0.6457 0.0024
0.0261 -0.6111 -0.0272
-0.0574 0.5766 -0.0876
-0.0288 0.0207 -0.0328
-0.0503 -0.6479 0.0557
-0.0215 0.1628 -0.0514
-0.0520 -0.5148 -0.0154
-0.0565 0.7088 -0.0709
-0.0677 -0.6195 0.0032
-0.0557 -0.4314 -0.0197
-0.0860 0.5410 -0.0847
-0.0060 -0.5533 -0.0291
-0.0114 -0.2112 -0.0366
-0.0904 0.6030 -0.1041
-0.0147 -0.2868 -0.0582
-0.0412 0.5579 -0.0486
-0.0564 0.2637 -0.0828
-0.0087 -0.2828 -0.0299
-0.0767 0.4854 -0.0846
-0.0452 -0.0835 -0.0749
-0.0443 -0.2353 -0.0647
-0.0057 -0.3188 -0.0423
-0.0165 -0.0510 -0.0666
-0.0295 -0.6149 -0.0222
-0.0451 0.3765 -0.0384
-0.0037 -0.4342 -0.0333
-0.0652 -0.0675 -0.0672
-0.0669 0.0441 -0.0327
0.0223 -0.6235 -0.0021
-0.0604 -0.6880 0.0192
-0.0565 0.0511 -0.0783
0.0032 -0.5278 -0.0134
-0.0643 0.4873 -0.0873
-0.0468 0.4460 -0.0785
-0.0010 -0.5014 -0.0282
-0.0782 0.5961 -0.0618
-0.0645 0.0704 -0.0328
-0.0084 -0.2065 -0.0494
0.0279 -0.5774 0.0044
-0.0137 -0.1289 -0.0627
-0.0275 -0.3582 -0.0559
-0.0212 -0.1973 -0.0264
-0.0870 0.7056 -0.1200
-0.0677 0.6821 -0.1085
-0.0171 -0.6612 -0.0249
-0.1004 0.7111 -0.0314
-0.0039 -0.5717 -0.0255
-0.0366 -0.4120 -0.0470
-0.0736 0.2713 -0.0576
-0.1094 0.6958 -0.1050
-0.0250 -0.0226 -0.0347
0.0173 -0.5985 0.0207
-0.0273 -0.3905 -0.0077
-0.0469 0.5095 -0.0777
-0.1128 0.7033 -0.0528
-0.0420 0.5452 -0.0662
-0.0640 -0.2603 -0.0470
-0.0404 0.2635 -0.0799
-0.0287 0.3803 -0.0498
-0.0619 0.6072 -0.0535
-0.0769 -0.0125 -0.0445
-0.0386 -0.5317 0.0064
-0.0380 0.2495 -0.0794
-0.0720 0.0042 -0.0410
-0.0244 -0.1086 -0.0298
-0.0439 0.0007 -0.0789
-0.0638 0.1648 -0.0788
-0.0166 -0.1567 -0.0664
-0.0894 0.6511 -0.1018
-0.0498 -0.5487 -0.0114
-0.0063 -0.5619 0.0189
-0.0817 0.7051 -0.1169
-0.0269 0.3048 -0.0574
-0.0059 -0.6657 -0.0324
-0.0303 0.2968 -0.0686
-0.0724 -0.1015 -0.0576
-0.0123 0.0026 -0.0558
-0.0657 -0.2907 -0.0331
-0.1057 0.6729 -0.1057
-0.1137 0.7285 -0.0773
-0.0082 -0.3917 -0.0425
-0.0765 -0.6250 0.0267
-0.0575 0.4379 -0.0842
-0.0535 -0.1718 -0.0662
-0.0285 -0.4810 -0.0418
-0.0523 -0.1780 -0.0164
-0.0350 -0.6035 0.0438
-0.0647 0.1005 -0.0345
-0.1119 0.6787 -0.0967
-0.0193 0.1201 -0.0507
0.0016 -0.5069 -0.0197
-0.0407 0.3778 -0.0764
-0.0899 0.5724 -0.0773
0.0106 -0.6088 0.0269
-0.0796 0.1439 -0.0556
-0.0807 0.3513 -0.0695
-0.0411 -0.6606 -0.0083
-0.0445 -0.3161 -0.0119
-0.0209 0.0763 -0.0669
-0.0574 -0.2022 -0.0191
0.0343 -0.6017 -0.0098
-0.0063 -0.3043 -0.0317
-0.0142 -0.4544 -0.0027
-0.0170 -0.4762 -0.0422
0.0016 -0.6829 -0.0372
-0.0753 0.3511 -0.0627
-0.0748 -0.0935 -0.0491
-0.0538 -0.3880 -0.0407
-0.0103 -0.6432 -0.0327
-0.0622 0.5747 -0.0478
-0.0432 0.5413 -0.0401
-0.0365 0.4886 -0.0418
-0.0869 0.5386 -0.0777
-0.0828 0.6004 -0.1023
-0.0535 0.6206 -0.0598
-0.0762 -0.0668 -0.0528
-0.0616 -0.1587 -0.0204
-0.0356 -0.5374 0.0087
-0.0803 0.0962 -0.0558
-0.0778 0.5444 -0.0902
-0.0346 -0.5465 -0.0293
-0.0214 -0.5580 -0.0318
-0.0878 0.5749 -0.0936
-0.0602 0.0925 -0.0312
-0.0400 0.5552 -0.0599
-0.0512 0.5783 -0.0474
-0.0170 -0.5328 0.0110
-0.0521 -0.3565 -0.0478
-0.0610 0.4575 -0.0467
-0.1084 0.6704 -0.0762
-0.1062 0.6602 -0.0878
-0.0422 0.5164 -0.0697
-0.0253 -0.0202 -0.0755
-0.1154 0.7280 -0.0598
-0.0303 0.0555 -0.0325
-0.0940 0.5877 -0.0803
-0.0989 0.6160 -0.0844
-0.0176 -0.3013 -0.0591
-0.0495 0.5844 -0.0494
-0.0422 -0.4913 0.0016
-0.0366 0.3845 -0.0703
-0.0911 0.6980 -0.0369
-0.0172 -0.1609 -0.0324
-0.0469 0.4402 -0.0408
0.0281 -0.6335 -0.0216
-0.0917 0.5726 -0.0853
-0.0627 0.3315 -0.0825
-0.0854 0.4968 -0.0798
-0.0687 -0.1741 -0.0536
-0.0553 0.4819 -0.0846
-0.0244 0.1969 -0.0670
-0.0453 0.3312 -0.0810
-0.0381 -0.5590 -0.0254
-0.0345 -0.5293 -0.0324
-0.1053 0.7252 -0.0987
-0.0138 -0.1192 -0.0437
-0.0283 -0.0126 -0.0769
-0.0776 -0.0271 -0.0549
-0.0460 -0.1380 -0.0189
-0.0465 -0.0340 -0.0232
-0.0593 0.3429 -0.0828
-0.0628 -0.3029 -0.0199
-0.0619 0.5259 -0.0460
-0.0975 0.5985 -0.0844
-0.0305 0.1505 -0.0757
-0.0240 -0.4589 -0.0001
0.0158 -0.6194 0.0197
-0.0076 -0.4958 0.0006
-0.0795 0.7016 -0.0600
-0.0239 0.1959 -0.0477
-0.0257 0.2728 -0.0522
-0.0026 -0.6404 0.0383
-0.0509 0.7354 -0.0892
-0.0535 -0.4275 -0.0128
-0.0545 -0.4630 -0.0208
-0.0694 0.2264 -0.0487
-0.0130 -0.6839 -0.0290
-0.0512 0.5554 -0.0410
-0.0701 -0.0200 -0.0361
-0.0274 -0.0470 -0.0316
-0.0446 -0.5768 -0.0150
-0.0679 0.4845 -0.0862
-0.0502 -0.4560 -0.0323
-0.0277 0.2886 -0.0386
-0.0742 0.3931 -0.0600
0.0042 -0.5535 0.0132
-0.0316 0.3973 -0.0442
-0.0226 0.2145 -0.0548
-0.0207 -0.3640 -0.0544
-0.0308 -0.4865 -0.0398
-0.0364 -0.6318 -0.0169
-0.0613 0.5928 -0.0505
-0.0739 0.5482 -0.0593
-0.0506 -0.5370 -0.0075
-0.0276 0.0290 -0.0339
-0.0355 -0.6275 0.0520
-0.0575 0.2942 -0.0830
-0.0299 -0.4216 -0.0483
-0.0328 -0.1455 -0.0724
-0.0241 -0.3789 -0.0101
-0.0712 0.3061 -0.0544
-0.0564 0.5223 -0.0420
-0.0461 -0.4295 -0.0405
-0.0785 0.0112 -0.0590
-0.0315 -0.1825 -0.0703
-0.0986 0.6361 -0.0979
-0.0018 -0.5269 -0.0281
-0.0606 0.5985 -0.0514
0.0362 -0.6718 0.0048
-0.0635 0.7167 -0.1152
-0.0742 -0.6505 0.0473
-0.0146 -0.3816 -0.0507
-0.1035 0.6452 -0.0816
-0.0587 0.5777 -0.0469
-0.0307 0.4201 -0.0584
-0.0249 -0.4399 -0.0027
-0.0518 0.5124 -0.0829
-0.0433 -0.3946 -0.0475
-0.0465 -0.2940 -0.0123
-0.0290 -0.1509 -0.0238
-0.0014 -0.4588 -0.0265
-0.0475 -0.1555 -0.0700
-0.0394 0.5464 -0.0465
-0.0462 -0.5520 -0.0199
-0.0680 -0.2416 -0.0333
-0.0380 -0.0657 -0.0765
-0.0754 0.1349 -0.0727
-0.0811 0.6624 -0.1085
-0.0263 0.3063 -0.0462
-0.0527 -0.4762 -0.0269
-0.0795 0.1002 -0.0651
-0.0067 -0.4006 -0.0157
-0.0230 -0.5585 0.0195
-0.0240 0.1489 -0.0691
-0.0634 0.4217 -0.0834
0.0199 -0.6636 0.0493
-0.0637 0.6146 -0.0942
-0.0801 0.5094 -0.0852
-0.0683 0.2275 -0.0797
-0.0013 -0.4805 -0.0275
-0.0294 -0.2591 -0.0650
-0.0291 0.3616 -0.0429
-0.0674 0.5863 -0.0940
-0.0489 -0.5026 -0.0272
-0.0414 -0.3155 -0.0580
-0.0067 -0.5355 -0.0317
0.0251 -0.6912 0.0064
-0.0378 0.4787 -0.0429
-0.0380 0.4893 -0.0483
-0.0128 -0.5256 0.0087
-0.0233 0.2329 -0.0590
-0.0011 -0.4698 -0.0182
0.0149 -0.6493 0.0326
-0.0566 0.3235 -0.0400
-0.0754 0.1788 -0.0506
-0.0588 0.1778 -0.0348
-0.0678 0.5720 -0.0524
-0.0128 -0.0317 -0.0498
0.0005 -0.5037 -0.0079
-0.0523 0.5733 -0.0820
0.0026 -0.5694 -0.0210
-0.0768 0.3099 -0.0645
-0.0681 -0.2117 -0.0473
-0.0637 -0.2948 -0.0406
-0.0744 0.6578 -0.1069
-0.0967 0.6325 -0.0719
-0.0721 -0.1358 -0.0416
-0.0743 -0.0224 -0.0631
-0.0092 -0.5219 -0.0340
-0.0105 -0.3173 -0.0519
-0.0264 0.0597 -0.0371
-0.0590 -0.3096 -0.0476
-0.0642 -0.1315 -0.0263
-0.0166 -0.0119 -0.0657
-0.0691 -0.2135 -0.0382
-0.0698 0.0676 -0.0729
-0.0340 -0.4426 -0.0439
-0.0208 -0.5794 -0.0284
-0.0336 0.2906 -0.0332
-0.0458 0.4753 -0.0779
-0.0039 -0.4639 -0.0105
-0.0669 0.1743 -0.0780
-0.0712 0.2988 -0.0790
-0.0414 0.0714 -0.0811
-0.0480 -0.5515 -0.0090
-0.0404 0.5683 -0.0569
-0.0771 0.2239 -0.0597
-0.0075 -0.2372 -0.0416
-0.0437 0.6917 -0.0977
-0.0524 -0.5242 -0.0124
-0.0597 -0.0422 -0.0714
-0.0020 -0.4357 -0.0166
-0.0797 0.1178 -0.0636
-0.0493 -0.5167 -0.0056
-0.0318 0.0856 -0.0324
-0.0269 -0.5197 0.0091
-0.0425 0.2780 -0.0337
-0.0836 0.5679 -0.0687
-0.0816 0.4325 -0.0749
-0.0822 0.5087 -0.0724
0.0211 -0.5980 0.0165
-0.0673 0.3818 -0.0812
-0.0564 -0.6789 0.0507
0.0080 -0.6539 -0.0386
-0.0685 0.0085 -0.0340
-0.0383 0.7127 -0.0937
-0.0638 -0.1434 -0.0623
-0.0636 -0.3259 -0.0274
-0.0511 0.6187 -0.0647
-0.0439 -0.4708 -0.0365
-0.0404 -0.1195 -0.0207
-0.0544 0.6370 -0.0641
-0.0947 0.6060 -0.0759
-0.0483 -0.3185 -0.0548
-0.0475 -0.5318 -0.0020
-0.0552 -0.0063 -0.0243
-0.0293 0.1024 -0.0763
-0.0816 0.4660 -0.0796
-0.0367 0.4899 -0.0416
-0.0241 0.2457 -0.0534
-0.0449 -0.5446 -0.0225
-0.0379 -0.2824 -0.0128
-0.0784 0.0529 -0.0489
-0.0365 -0.5025 -0.0356
-0.0625 0.6761 -0.1022
-0.0116 -0.4904 -0.0388
-0.0025 -0.5551 0.0153
-0.0290 0.1844 -0.0730
-0.0590 0.3095 -0.0417
-0.0559 0.5605 -0.0865
-0.1164 0.7247 -0.0511
-0.0272 0.2820 -0.0430
-0.0833 0.4713 -0.0750
-0.0794 0.6378 -0.1062
-0.0313 -0.6760 -0.0164
-0.0030 -0.4038 -0.0243
-0.0151 -0.5516 -0.0328
-0.0425 -0.5735 -0.0184
-0.0264 0.2335 -0.0439
-0.0346 -0.3896 -0.0080
-0.0556 -0.2698 -0.0566
-0.0402 -0.4551 -0.0401
-0.1051 0.6562 -0.0966
0.0158 -0.6636 0.0529
-0.0370 0.5131 -0.0578
-0.0178 -0.4550 -0.0013
0.0146 -0.6772 0.0454
-0.0191 -0.4074 -0.0501
-0.0167 -0.1186 -0.0677
-0.0333 0.2763 -0.0742
-0.0473 0.7183 -0.0866
-0.0617 0.0046 -0.0734
-0.0744 0.2201 -0.0765
-0.0778 0.3867 -0.0668
-0.0721 0.4657 -0.0852
-0.0746 0.5069 -0.0611
-0.0206 -0.4838 -0.0414
-0.0068 -0.3434 -0.0234
-0.0747 0.6897 -0.0583
-0.0760 0.4260 -0.0791
-0.0472 -0.5613 -0.0152
-0.0751 0.6981 -0.1125
-0.0677 -0.1608 -0.0307
-0.0985 0.6605 -0.0574
0.0084 -0.6351 -0.0434
-0.0272 -0.5774 -0.0273
-0.0524 0.2820 -0.0832
-0.0685 -0.5942 0.0282
-0.0798 0.2039 -0.0598
-0.0781 0.2629 -0.0743
-0.0660 0.1272 -0.0372
-0.0573 0.1174 -0.0800
-0.0656 0.2662 -0.0463
-0.0380 0.5123 -0.0486
-0.1123 0.7202 -0.0948
-0.0993 0.6525 -0.1042
-0.0491 0.2817 -0.0830
-0.0415 -0.5114 -0.0317
-0.1182 0.7070 -0.0705
-0.0591 0.6701 -0.0654
-0.0120 -0.2041 -0.0577
-0.0284 -0.6476 -0.0183
-0.0804 0.2530 -0.0642
-0.0613 0.7241 -0.1105
-0.0803 0.5212 -0.0875
-0.0224 -0.5427 -0.0337
-0.0137 -0.0861 -0.0614
-0.0423 -0.6123 -0.0102
-0.0899 0.6269 -0.1052
-0.0043 -0.4537 -0.0337
-0.0543 -0.0349 -0.0744
-0.0789 0.0187 -0.0507
-0.0568 -0.1886 -0.0635
-0.0345 0.3351 -0.0721
-0.0409 0.4460 -0.0725
-0.0641 0.6449 -0.1020
-0.0484 -0.0141 -0.0779
-0.0066 -0.2940 -0.0421
-0.1172 0.7159 -0.0820
-0.0509 -0.1429 -0.0179
-0.0584 0.5944 -0.0501
-0.0554 -0.6770 0.0514
-0.0288 -0.2839 -0.0632
-0.0396 0.2133 -0.0815
-0.0751 0.4484 -0.0825
-0.0468 0.5939 -0.0577
-0.0503 -0.2376 -0.0166
-0.1047 0.7103 -0.1153
-0.0326 0.4552 -0.0562
-0.0418 0.5579 -0.0459
-0.0810 0.3130 -0.0718
-0.0707 0.5171 -0.0885
-0.0911 0.6423 -0.1048
-0.0667 0.3403 -0.0505
-0.0638 0.2384 -0.0433
-0.0405 -0.5976 -0.0151
-0.0554 0.6610 -0.0731
-0.0975 0.6198 -0.0899
-0.0608 0.6284 -0.0566
-0.0570 -0.2811 -0.0163
-0.0403 -0.4227 -0.0039
-0.0369 0.4224 -0.0677
-0.0432 -0.3692 -0.0081
-0.0016 -0.6028 0.0308
-0.0696 0.4757 -0.0546
-0.0867 0.6811 -0.1120
-0.0512 0.1216 -0.0297
-0.0238 -0.6135 -0.0241
-0.0519 0.6014 -0.0538
-0.0826 0.5462 -0.0711
-0.0481 0.5886 -0.0719
-0.1198 0.7019 -0.0941
-0.0160 -0.5370 -0.0347
-0.1104 0.7270 -0.0346
-0.0450 0.5914 -0.0644
-0.0714 0.6214 -0.1025
-0.0288 -0.5370 -0.0335
-0.0264 0.1575 -0.0412
-0.0782 0.6930 -0.0553
-0.0507 -0.0938 -0.0730
-0.0405 -0.0565 -0.0232
-0.0402 -0.2575 -0.0134
-0.0108 -0.4428 -0.0423
-0.0033 -0.5442 -0.0285
-0.0336 -0.3687 -0.0540
-0.0728 0.7093 -0.1183
-0.0416 -0.1539 -0.0712
-0.0543 -0.0418 -0.0217
-0.0358 -0.6479 -0.0151
-0.0542 0.6109 -0.0767
-0.0688 0.7048 -0.1133
0.0010 -0.5427 -0.0231
-0.0572 0.6033 -0.0833
-0.0615 0.7002 -0.0639
-0.0616 0.2415 -0.0807
-0.0483 -0.6509 -0.0015
-0.0772 0.3424 -0.0766
0.0039 -0.6367 0.0308
-0.0135 -0.5785 0.0319
-0.0636 0.3822 -0.0476
-0.0391 0.5467 -0.0503
-0.0452 0.5791 -0.0510
-0.0003 -0.6535 0.0544
-0.1124 0.6912 -0.1038
-0.0366 0.4737 -0.0492
-0.0588 0.5629 -0.0889
0.0146 -0.6772 0.0454
-0.0420 -0.6018 -0.0134
-0.0204 0.0075 -0.0413
-0.0619 0.5799 -0.0474
-0.0382 -0.5730 0.0147
-0.0422 -0.1873 -0.0153
0.0042 -0.5385 0.0052
-0.0479 -0.4573 -0.0053
-0.1090 0.7021 -0.1067
-0.0508 0.5351 -0.0408
-0.0474 0.4983 -0.0390
-0.0717 -0.1204 -0.0351
-0.0765 0.0527 -0.0668
-0.0578 0.6451 -0.0614
-0.0502 0.0838 -0.0811
-0.0296 0.2406 -0.0716
-0.0548 -0.4414 -0.0269
-0.0273 0.3205 -0.0409
-0.0262 0.2801 -0.0595
-0.0457 0.0090 -0.0252
-0.0248 0.0724 -0.0724
0.0277 -0.5853 0.0131
-0.0142 -0.5735 -0.0285
-0.0543 0.1964 -0.0826
-0.0355 0.4868 -0.0626
-0.0376 -0.2384 -0.0658
0.0291 -0.6835 -0.0024
-0.0666 0.6503 -0.1037
-0.0440 -0.3522 -0.0085
-0.0105 -0.0911 -0.0531
-0.0561 -0.1002 -0.0702
0.0184 -0.5791 0.0178
-0.0475 -0.5491 -0.0034
-0.0410 0.4829 -0.0710
-0.0469 -0.5457 -0.0009
0.0059 -0.5343 -0.0076
-0.0148 -0.1789 -0.0631
-0.0647 -0.0217 -0.0284
-0.0200 -0.0642 -0.0703
-0.0854 0.6631 -0.1057
-0.1168 0.7208 -0.0721
0.0089 -0.5963 -0.0258
-0.0367 0.5206 -0.0438
-0.0315 0.0686 -0.0783
-0.0988 0.7324 -0.0195
-0.0755 0.6830 -0.1115
-0.0136 -0.3428 -0.0526
-0.0538 -0.4590 -0.0129
-0.0782 0.4306 -0.0667
-0.0539 -0.4955 -0.0202
-0.0329 0.5144 -0.0478
-0.0335 -0.3392 -0.0577
-0.0162 0.0353 -0.0495
-0.0186 -0.1406 -0.0680
-0.0413 0.0908 -0.0815
-0.0583 -0.6838 0.0433
-0.0221 -0.4995 0.0044
-0.0048 -0.4799 -0.0338
-0.0621 -0.6754 0.0472
-0.0136 -0.4132 -0.0087
-0.0325 0.5239 -0.0502
-0.0616 -0.2073 -0.0226
-0.0700 0.0413 -0.0387
-0.0650 -0.6346 0.0025
-0.0800 0.0570 -0.0594
-0.0161 -0.2309 -0.0275
-0.0373 -0.5444 0.0082
-0.0596 -0.3708 -0.0265
-0.1022 0.6396 -0.0912
-0.0462 -0.6276 0.0489
-0.0113 -0.6203 0.0360
-0.0378 0.5347 -0.0533
-0.0641 -0.2829 -0.0242
-0.0723 0.1329 -0.0437
-0.0504 -0.5209 -0.0211
-0.0302 0.3394 -0.0627
-0.0699 0.4193 -0.0552
-0.0570 -0.4096 -0.0261
-0.0590 -0.0580 -0.0220
-0.0668 0.6257 -0.1000
-0.0409 0.0067 -0.0795
-0.1105 0.7343 -0.0454
-0.0370 0.4474 -0.0446
0.0327 -0.6679 0.0252
-0.0514 0.5372 -0.0833
-0.0892 0.6668 -0.1012
-0.0574 -0.2270 -0.0192
-0.0583 0.6259 -0.0569
-0.0441 0.1610 -0.0817
0.0267 -0.6122 0.0010
-0.0394 -0.0218 -0.0789
0.0194 -0.6740 0.0425
-0.0581 -0.3759 -0.0339
-0.0613 -0.3368 -0.0340
-0.0439 -0.5864 -0.0110
-0.0751 0.6028 -0.1012
-0.0757 -0.0542 -0.0467
-0.0441 -0.6371 -0.0080
-0.0421 -0.5197 0.0028
0.0131 -0.5742 0.0229
-0.0001 -0.4907 -0.0185
-0.0307 -0.2967 -0.0141
-0.1034 0.6233 -0.1085
-0.0365 -0.1994 -0.0172
-0.0080 -0.3665 -0.0417
-0.0594 0.1846 -0.0811
-0.0303 -0.0618 -0.0301
-0.0701 0.3907 -0.0801
0.0160 -0.6272 0.0110
-0.0386 -0.3830 -0.0508
0.0252 -0.5936 0.0172
-0.0049 -0.3601 -0.0245
-0.0377 0.3967 -0.0393
-0.0320 -0.5315 0.0089
0.0254 -0.6769 -0.0283
-0.0444 0.3129 -0.0348
-0.0531 0.2977 -0.0366
-0.0313 -0.4307 -0.0032
-0.0147 0.0343 -0.0630
0.0163 -0.5815 -0.0155
-0.0752 0.0976 -0.0457
0.0225 -0.6409 0.0058
-0.0491 0.5120 -0.0400
-0.0234 -0.1880 -0.0684
-0.0410 0.4441 -0.0422
-0.0095 -0.1654 -0.0479
-0.0155 0.0824 -0.0587
-0.0890 0.5544 -0.0781
-0.0688 0.7047 -0.1133
-0.0584 0.5935 -0.0869
-0.0786 0.5261 -0.0665
-0.0055 -0.5064 -0.0337
-0.0372 0.4926 -0.0539
-0.0463 0.1589 -0.0314
-0.0016 -0.4361 -0.0243
-0.0517 -0.4977 -0.0121
-0.0461 0.5659 -0.0705
-0.0623 -0.6589 0.0128
-0.0085 -0.4180 -0.0424
-0.0133 0.0492 -0.0531
-0.0218 0.0097 -0.0725
-0.1116 0.6796 -0.0873
-0.0150 -0.3502 -0.0152
-0.0069 -0.6532 -0.0336
-0.0494 -0.1304 -0.0713
-0.0673 -0.0647 -0.0307
-0.0440 -0.5342 -0.0259
-0.1024 0.7190 -0.1080
-0.0273 0.3412 -0.0537
0.0201 -0.6876 0.0256
-0.0486 -0.5394 -0.0025
-0.0040 -0.4020 -0.0330
-0.0301 0.4041 -0.0549
-0.0183 -0.6148 -0.0256
-0.0097 -0.2404 -0.0508
-0.0661 -0.6859 0.0305
-0.0457 -0.5383 0.0009
-0.0970 0.7345 -0.0199
-0.0724 0.1048 -0.0399
-0.0735 0.3858 -0.0792
-0.0213 -0.2392 -0.0649
-0.0724 0.5773 -0.0573
0.0326 -0.5951 0.0048
-0.0294 0.2057 -0.0393
-0.0811 0.2649 -0.0661
-0.1039 0.6678 -0.0687
-0.0110 -0.0394 -0.0598
-0.0210 -0.3336 -0.0581
-0.0103 -0.1318 -0.0554
-0.0466 -0.5674 -0.0121
-0.0475 0.1231 -0.0304
-0.0044 -0.3352 -0.0322
-0.0567 0.5002 -0.0430
-0.0335 -0.5043 0.0046
-0.0726 -0.1355 -0.0511
-0.0826 0.6956 -0.1149
-0.0031 -0.6204 0.0327
-0.0656 0.6331 -0.1009
-0.0539 0.1540 -0.0314
-0.0650 0.5701 -0.0495
-0.0797 0.3845 -0.0762
-0.0599 -0.3370 -0.0411
-0.0194 0.1240 -0.0648
0.0109 -0.5827 0.0220
-0.0678 0.1855 -0.0434
-0.0312 -0.2188 -0.0677
-0.0693 -0.0749 -0.0336
-0.0567 0.6617 -0.0967
-0.0683 -0.1936 -0.0306
-0.0649 0.0033 -0.0715
-0.0200 0.0349 -0.0695
-0.0537 0.6273 -0.0732
-0.0482 -0.4989 -0.0045
-0.0530 -0.2017 -0.0643
-0.0693 0.6605 -0.0579
-0.1085 0.7179 -0.1044
-0.0316 -0.5827 -0.0245
-0.0700 -0.1811 -0.0450
-0.0670 -0.2506 -0.0398
-0.1000 0.6883 -0.0328
-0.0762 -0.0549 -0.0551
-0.0505 -0.2575 -0.0602
-0.0188 -0.0667 -0.0386
-0.0466 0.2166 -0.0821
-0.0620 0.7010 -0.1087
-0.0253 0.1117 -0.0716
-0.0244 -0.1101 -0.0729
0.0057 -0.5465 -0.0137
-0.0394 0.4120 -0.0731
-0.0806 0.4185 -0.0717
-0.0678 0.5142 -0.0531
-0.0614 0.5422 -0.0891
-0.0407 0.5114 -0.0384
-0.0491 0.5548 -0.0775
-0.0119 -0.1631 -0.0569
-0.0353 -0.1089 -0.0748
-0.0839 0.6291 -0.1047
-0.0327 0.1818 -0.0320
-0.0219 0.0987 -0.0443
-0.0515 -0.5387 -0.0149
-0.0126 -0.5256 -0.0357
-0.0643 0.3049 -0.0808
-0.0556 0.3750 -0.0833
-0.0035 -0.4195 -0.0333
-0.0348 0.4551 -0.0646
-0.0550 0.6922 -0.0736
-0.0297 0.3741 -0.0607
-0.0849 -0.6579 0.0262
-0.0755 0.5518 -0.0918
-0.0752 0.4620 -0.0632
-0.0968 0.5982 -0.0918
-0.0284 0.2385 -0.0379
-0.0353 -0.6582 -0.0140
-0.0339 -0.1144 -0.0231
-0.0355 0.1397 -0.0796
-0.0838 0.5793 -0.0690
-0.0392 -0.6254 -0.0138
-0.0472 0.7269 -0.0984
-0.0288 0.3230 -0.0394
-0.0242 0.0226 -0.0741
-0.0198 0.1645 -0.0630
-0.0122 -0.4425 -0.0050
-0.0099 -0.2824 -0.0511
-0.0382 0.4944 -0.0467
-0.0333 0.4337 -0.0490
-0.1016 0.6238 -0.0838
-0.1152 0.7249 -0.0402
-0.0786 0.1053 -0.0663
-0.0485 0.0125 -0.0784
-0.0142 -0.4661 -0.0421
0.0016 -0.5263 -0.0209
-0.0277 -0.0403 -0.0759
-0.0797 0.1844 -0.0697
-0.0740 -0.0829 -0.0410
-0.0634 0.0778 -0.0761
0.0130 -0.6078 -0.0330
-0.0173 0.0770 -0.0506
-0.0596 -0.3606 -0.0196
-0.0710 -0.1610 -0.0366
-0.0546 0.5962 -0.0814
0.0248 -0.5998 -0.0197
-0.0169 0.1259 -0.0553
-0.0603 0.0127 -0.0277
-0.0711 -0.1412 -0.0356
-0.0523 -0.3555 -0.0113
0.0309 -0.6493 -0.0103
-0.0519 0.1486 -0.0822
-0.0656 -0.6868 0.0120
-0.0805 0.1808 -0.0613
-0.0646 -0.6804 0.0412
-0.0526 0.7300 -0.1034
-0.0771 -0.6124 0.0272
-0.0593 -0.2481 -0.0561
-0.0193 -0.0200 -0.0697
-0.0247 -0.4151 -0.0501
-0.0447 0.5644 -0.0448
-0.0172 -0.2076 -0.0639
-0.0427 0.1695 -0.0314
-0.0185 -0.5221 -0.0370
-0.0284 0.3530 -0.0444
-0.0255 0.2526 -0.0628
-0.0816 0.6844 -0.1158
-0.0478 -0.4813 -0.0330
-0.0049 -0.3721 -0.0325
-0.0281 0.1167 -0.0366
0.0225 -0.6031 0.0129
-0.0522 0.5889 -0.0773
0.0254 -0.6085 -0.0139
0.0300 -0.6714 -0.0135
-0.0580 -0.2886 -0.0525
0.0235 -0.6526 -0.0350
-0.0768 0.6201 -0.1037
-0.0724 0.1343 -0.0743
0.0277 -0.6789 0.0147
-0.0552 -0.4089 -0.0339
-0.0084 -0.5558 -0.0299
-0.0416 0.0348 -0.0275
0.0298 -0.5861 -0.0012
-0.0100 -0.3198 -0.0220
-0.0704 0.5648 -0.0933
-0.0732 0.6344 -0.1043
-0.0610 -0.6842 0.0421
-0.0496 0.4118 -0.0803
-0.0518 0.7139 -0.1042
-0.0233 -0.6214 -0.0235
-0.0490 0.6021 -0.0575
-0.1138 0.7123 -0.1033
0.0234 -0.6912 -0.0174
-0.0347 -0.5976 -0.0203
-0.0796 0.2271 -0.0672
-0.0353 -0.2920 -0.0622
-0.0420 0.5677 -0.0491
-0.0644 -0.6746 0.0114
-0.0113 -0.6056 0.0358
-0.0630 -0.1030 -0.0244
-0.0495 -0.5917 0.0387
