0.0293 -0.2287 -0.0278
0.0195 -0.2324 -0.0388
-0.0321 0.4550 -0.0990
0.0546 -0.4808 0.0031
-0.0534 0.5361 -0.0788
-0.0236 0.1557 -0.0352
-0.0474 0.6815 -0.1464
0.0840 -0.5896 -0.0053
0.0502 -0.4489 0.0023
0.0767 -0.5836 -0.0188
0.0425 -0.3229 -0.0576
-0.0282 0.2766 -0.0797
0.0715 -0.5422 -0.0296
0.1023 -0.6972 0.0623
0.0516 -0.3791 -0.0470
-0.0663 0.6798 -0.1505
-0.0730 0.6968 -0.1441
-0.0436 0.4852 -0.1054
0.0604 -0.4467 -0.0226
0.1048 -0.7117 0.0580
0.0467 -0.3815 -0.0065
-0.0091 0.0804 -0.0712
0.0788 -0.5768 0.0333
0.0740 -0.5657 -0.0238
0.0088 -0.0146 -0.0785
-0.0047 0.1668 -0.0819
0.0039 0.0077 -0.0532
0.0018 -0.0336 -0.0279
0.0100 0.0068 -0.0795
-0.0080 0.0806 -0.0416
0.0754 -0.5876 -0.0176
0.0623 -0.4847 -0.0384
-0.0010 0.0348 -0.0753
-0.0521 0.6329 -0.1088
0.0551 -0.4511 0.0063
0.0620 -0.5472 -0.0094
-0.0355 0.4697 -0.1133
0.0982 -0.6863 0.0658
0.0131 -0.1674 -0.0227
0.0878 -0.6765 -0.0004
0.0654 -0.4739 -0.0306
0.0599 -0.4794 -0.0376
0.0559 -0.4079 -0.0334
-0.0554 0.6882 -0.1590
-0.0224 0.3478 -0.1022
0.0119 -0.1708 -0.0387
0.0230 -0.1579 -0.0702
-0.0313 0.3784 -0.0986
0.1296 -0.7159 0.0017
-0.0186 0.1373 -0.0622
0.0556 -0.4724 -0.0332
-0.0341 0.2908 -0.0600
-0.0320 0.4921 -0.1141
0.0096 -0.0032 -0.0672
-0.0206 0.1611 -0.0377
0.0786 -0.5674 -0.0189
0.0897 -0.6242 0.0399
-0.0210 0.2423 -0.0587
-0.0519 0.5128 -0.0717
0.0809 -0.6294 0.0502
0.0775 -0.5701 -0.0207
-0.0584 0.5956 -0.1029
0.1192 -0.6794 0.0450
-0.0160 0.1658 -0.0486
-0.0663 0.6647 -0.0924
0.0781 -0.5851 -0.0178
-0.0524 0.7016 -0.1341
0.0794 -0.5567 -0.0145
-0.0543 0.5437 -0.0925
-0.0230 0.1519 -0.0453
0.0319 -0.2171 -0.0500
-0.0384 0.4444 -0.1035
-0.0202 0.1175 -0.0396
0.0926 -0.6323 0.0297
-0.0537 0.5699 -0.0899
-0.0317 0.2422 -0.0464
-0.0143 0.2866 -0.0956
-0.0438 0.3886 -0.0591
-0.0041 -0.0284 -0.0441
-0.0518 0.4827 -0.0675
-0.0489 0.6129 -0.1095
0.0364 -0.3021 -0.0141
-0.0592 0.6515 -0.1455
0.0831 -0.6666 0.0670
-0.0315 0.4842 -0.1206
-0.0095 0.2324 -0.0938
-0.0386 0.3384 -0.0610
0.0892 -0.6721 -0.0031
-0.0575 0.5838 -0.0981
0.0868 -0.6104 -0.0026
0.0623 -0.5412 0.0031
-0.0097 0.0204 -0.0402
0.1064 -0.6911 -0.0167
0.0005 0.0968 -0.0849
-0.0555 0.5563 -0.0896
0.0686 -0.5599 -0.0210
-0.0298 0.2206 -0.0394
0.0957 -0.6715 -0.0237
-0.0680 0.6486 -0.0828
-0.0448 0.4332 -0.0775
0.0076 -0.1271 -0.0285
-0.0108 0.0319 -0.0345
-0.0157 0.2675 -0.0958
-0.0805 0.6926 -0.1295
0.0062 -0.0294 -0.0438
0.0761 -0.5544 -0.0235
-0.0681 0.6763 -0.1077
-0.0542 0.6846 -0.1213
0.0569 -0.4928 0.0089
-0.0307 0.2777 -0.0459
-0.0312 0.4791 -0.1108
-0.0193 0.3318 -0.1021
-0.0504 0.6101 -0.1048
0.0562 -0.4089 -0.0402
-0.0200 0.1351 -0.0548
-0.0502 0.5423 -0.0826
-0.0462 0.4278 -0.0671
0.0462 -0.4284 -0.0142
-0.0290 0.2234 -0.0521
0.0056 -0.0660 -0.0653
-0.0162 0.3064 -0.0986
-0.0529 0.6258 -0.1418
0.1073 -0.6697 -0.0218
-0.0318 0.4985 -0.1214
-0.0587 0.5922 -0.1095
-0.0281 0.2171 -0.0392
-0.0318 0.4682 -0.1170
-0.0530 0.6765 -0.1210
0.0679 -0.4916 -0.0182
0.0063 0.0324 -0.0816
0.0493 -0.3849 -0.0164
0.0793 -0.5594 -0.0157
0.0259 -0.2112 -0.0645
-0.0420 0.3753 -0.0529
0.0333 -0.2175 -0.0587
-0.0542 0.5368 -0.0802
0.0803 -0.6876 0.0192
-0.0516 0.6351 -0.1092
0.0860 -0.5912 0.0164
-0.0169 0.3087 -0.1006
0.0308 -0.2304 -0.0654
0.0765 -0.5962 0.0420
0.0396 -0.3505 -0.0490
0.0281 -0.1719 -0.0596
-0.0368 0.3070 -0.0540
0.0337 -0.3135 -0.0101
-0.0328 0.3131 -0.0513
0.0216 -0.1729 -0.0302
0.0347 -0.3430 -0.0152
0.0363 -0.3593 -0.0230
0.0082 -0.1206 -0.0239
0.0555 -0.4560 -0.0385
-0.0709 0.6700 -0.0951
0.0542 -0.4124 -0.0453
-0.0472 0.5570 -0.0928
0.0580 -0.5133 -0.0082
-0.0529 0.6881 -0.1582
-0.0260 0.3042 -0.0900
-0.0329 0.3402 -0.0594
0.0794 -0.5688 -0.0163
0.0707 -0.5930 0.0171
-0.0407 0.6066 -0.1365
-0.0345 0.5155 -0.1160
-0.0338 0.5081 -0.1236
-0.0626 0.6198 -0.1087
0.0047 0.0290 -0.0803
0.0233 -0.1448 -0.0715
0.0992 -0.6872 -0.0117
-0.0438 0.4539 -0.0945
-0.0297 0.3955 -0.1031
0.0476 -0.3794 -0.0511
-0.0293 0.2127 -0.0425
-0.0640 0.6276 -0.1125
-0.0086 0.1838 -0.0901
-0.0179 0.3173 -0.0925
0.0876 -0.6239 0.0487
-0.0520 0.6248 -0.1065
-0.0411 0.3548 -0.0529
0.0528 -0.4760 -0.0102
0.0174 -0.0706 -0.0743
0.0753 -0.5603 -0.0245
-0.0075 0.0488 -0.0330
-0.0532 0.5620 -0.0877
0.0132 -0.1656 -0.0524
0.0320 -0.2987 -0.0510
0.1254 -0.7324 -0.0001
-0.0107 0.2257 -0.0837
0.0474 -0.4025 -0.0445
0.0120 -0.1460 -0.0216
-0.0488 0.4527 -0.0674
-0.0491 0.5810 -0.0974
0.0778 -0.5546 0.0104
0.0093 -0.1453 -0.0343
-0.0441 0.5318 -0.1187
0.0832 -0.5786 -0.0054
0.0736 -0.6010 0.0313
-0.0764 0.7148 -0.1319
-0.0465 0.6764 -0.1542
-0.0459 0.6749 -0.1494
-0.0389 0.3263 -0.0515
-0.0609 0.6795 -0.1573
-0.0736 0.7196 -0.1071
0.0143 -0.0972 -0.0720
-0.0016 0.1360 -0.0848
-0.0387 0.4053 -0.0635
0.0782 -0.5923 0.0451
-0.0269 0.4266 -0.1037
0.0810 -0.5664 0.0001
0.0233 -0.2152 -0.0593
-0.0550 0.5689 -0.0897
0.0836 -0.6934 0.0642
0.0683 -0.5365 -0.0297
-0.0142 0.1923 -0.0851
-0.0012 0.0240 -0.0420
-0.0320 0.2907 -0.0714
-0.0432 0.5810 -0.1157
0.0221 -0.2291 -0.0527
-0.0400 0.4729 -0.0846
-0.0495 0.5802 -0.0965
0.0167 -0.0978 -0.0741
0.0321 -0.3154 -0.0450
0.0575 -0.4598 0.0061
0.0507 -0.4538 -0.0303
0.0370 -0.3636 -0.0193
0.0711 -0.5709 -0.0198
-0.0472 0.5572 -0.0923
0.0757 -0.6445 0.0379
-0.0010 0.0111 -0.0707
-0.0304 0.2638 -0.0432
-0.0249 0.3345 -0.0971
-0.0082 0.0210 -0.0550
0.0700 -0.5925 0.0003
-0.0419 0.5765 -0.1364
-0.0270 0.4033 -0.0953
-0.0619 0.6938 -0.1565
-0.0485 0.6847 -0.1608
-0.0107 0.1233 -0.0494
0.0837 -0.5870 0.0274
0.1235 -0.6930 -0.0024
-0.0156 0.1960 -0.0587
0.0746 -0.5912 -0.0157
0.0848 -0.6903 0.0101
0.0603 -0.5347 -0.0085
0.0730 -0.5218 -0.0246
0.0934 -0.6452 0.0511
-0.0215 0.2902 -0.0724
0.0966 -0.6676 0.0695
-0.0016 0.0044 -0.0329
0.0567 -0.4405 -0.0430
0.0795 -0.6083 -0.0113
-0.0486 0.6236 -0.1440
-0.0262 0.2182 -0.0412
0.0847 -0.7153 0.0607
-0.0172 0.2840 -0.0842
0.0679 -0.5796 -0.0063
0.0475 -0.4413 -0.0215
-0.0067 0.1967 -0.0877
-0.0340 0.4737 -0.1156
0.0775 -0.6881 0.0605
-0.0494 0.4521 -0.0619
0.0266 -0.2897 -0.0361
-0.0493 0.6434 -0.1490
-0.0144 0.0922 -0.0597
-0.0144 0.1310 -0.0420
0.0429 -0.3456 -0.0140
-0.0762 0.7077 -0.1368
0.0194 -0.0877 -0.0665
-0.0718 0.6811 -0.0895
0.0590 -0.5168 -0.0176
0.0250 -0.1830 -0.0369
0.0024 -0.0880 -0.0442
-0.0244 0.3951 -0.1092
0.0849 -0.6664 -0.0010
0.0765 -0.5467 0.0055
-0.0512 0.6761 -0.1593
0.0877 -0.6110 0.0462
-0.0751 0.7221 -0.1130
0.0785 -0.6462 0.0551
0.1064 -0.7066 0.0594
0.0855 -0.6803 0.0670
0.1158 -0.7393 0.0068
-0.0316 0.4727 -0.1072
-0.0534 0.5359 -0.0985
-0.0378 0.3733 -0.0827
0.0353 -0.2342 -0.0558
-0.0137 0.0756 -0.0553
-0.0087 0.1230 -0.0800
0.0773 -0.6135 0.0425
-0.0124 0.0501 -0.0482
0.0822 -0.6479 0.0606
-0.0218 0.1584 -0.0363
-0.0431 0.5408 -0.1000
0.0615 -0.4527 -0.0361
0.0681 -0.5640 -0.0185
0.1290 -0.7100 0.0362
0.0649 -0.4931 0.0071
0.0456 -0.4205 -0.0037
0.0509 -0.3940 -0.0491
-0.0508 0.4941 -0.0664
-0.0438 0.6448 -0.1419
-0.0055 -0.0132 -0.0495
0.0653 -0.5670 -0.0017
-0.0216 0.3277 -0.0849
-0.0175 0.3208 -0.1010
0.0147 -0.0429 -0.0673
-0.0184 0.3338 -0.0982
-0.0178 0.1020 -0.0328
-0.0533 0.6906 -0.1580
0.0223 -0.2471 -0.0451
-0.0018 0.1213 -0.0758
-0.0438 0.5051 -0.0848
0.0080 -0.1368 -0.0453
0.0487 -0.4207 -0.0399
0.0490 -0.4245 0.0025
-0.0192 0.2523 -0.0893
-0.0337 0.2580 -0.0448
0.0951 -0.6450 0.0437
0.0778 -0.6976 0.0295
0.0126 -0.0149 -0.0763
0.0080 -0.0304 -0.0758
-0.0533 0.5466 -0.0823
-0.0258 0.1888 -0.0533
-0.0213 0.1600 -0.0618
-0.0550 0.5741 -0.0913
0.0565 -0.4256 -0.0431
-0.0087 0.0980 -0.0752
0.0720 -0.5355 -0.0297
-0.0489 0.4527 -0.0607
-0.0463 0.5270 -0.0840
-0.0206 0.3628 -0.1033
-0.0403 0.5728 -0.1350
-0.0280 0.4498 -0.1101
-0.0126 0.2637 -0.0912
-0.0450 0.5827 -0.1352
-0.0671 0.6518 -0.0849
-0.0445 0.5210 -0.0887
0.0328 -0.2644 -0.0221
-0.0221 0.2262 -0.0793
0.0370 -0.3615 -0.0346
-0.0735 0.6946 -0.0882
0.0879 -0.6244 0.0421
0.0408 -0.2808 -0.0539
-0.0110 0.1555 -0.0601
0.0757 -0.6395 0.0169
0.0263 -0.2774 -0.0225
-0.0389 0.4174 -0.0671
-0.0427 0.3707 -0.0552
0.0034 0.0769 -0.0829
-0.0270 0.4095 -0.1091
0.0131 -0.1747 -0.0296
-0.0179 0.0955 -0.0356
0.0698 -0.5165 0.0046
0.0682 -0.5256 -0.0327
-0.0468 0.6810 -0.1576
0.0093 -0.0766 -0.0315
0.0803 -0.6049 -0.0110
-0.0509 0.4668 -0.0626
-0.0160 0.2434 -0.0735
-0.0222 0.1961 -0.0714
0.0256 -0.1455 -0.0645
0.0301 -0.2720 -0.0559
-0.0521 0.4944 -0.0684
0.0159 -0.0485 -0.0721
-0.0393 0.5772 -0.1345
-0.0410 0.6157 -0.1422
-0.0386 0.5040 -0.1006
0.0661 -0.5609 -0.0146
0.0783 -0.7098 0.0573
-0.0264 0.2041 -0.0380
-0.0479 0.6796 -0.1395
-0.0381 0.5256 -0.1100
-0.0465 0.4875 -0.0698
-0.0520 0.5257 -0.0751
-0.0498 0.5056 -0.0708
0.0421 -0.3972 -0.0109
-0.0452 0.6629 -0.1570
-0.0229 0.3816 -0.1005
-0.0236 0.1604 -0.0352
0.0412 -0.3952 -0.0252
0.0483 -0.4260 -0.0375
0.0443 -0.3131 -0.0476
0.0314 -0.2742 -0.0572
-0.0309 0.4383 -0.1122
-0.0210 0.2056 -0.0486
-0.0407 0.3852 -0.0739
-0.0033 0.0611 -0.0497
0.0823 -0.6420 -0.0048
-0.0543 0.6810 -0.1603
0.0146 -0.1580 -0.0587
0.0447 -0.4147 -0.0304
-0.0031 0.1514 -0.0871
-0.0486 0.6985 -0.1465
-0.0298 0.4716 -0.1151
-0.0064 0.0121 -0.0297
-0.0360 0.5440 -0.1233
0.0973 -0.6817 0.0669
0.0313 -0.3180 -0.0223
-0.0329 0.2610 -0.0515
0.0667 -0.5673 0.0140
0.0389 -0.3049 -0.0593
-0.0354 0.5094 -0.1226
-0.0390 0.3992 -0.0608
-0.0268 0.2876 -0.0578
-0.0841 0.7104 -0.1236
0.1223 -0.7191 0.0290
0.0892 -0.6873 0.0712
-0.0293 0.4563 -0.1169
-0.0722 0.6625 -0.1096
0.0011 0.0457 -0.0797
-0.0541 0.5222 -0.0788
0.0368 -0.2818 -0.0271
0.0538 -0.4284 -0.0444
-0.0728 0.7038 -0.1438
-0.0140 0.0581 -0.0390
0.0403 -0.3215 -0.0185
-0.0257 0.4282 -0.1118
-0.0066 0.1784 -0.0905
-0.0282 0.4016 -0.1060
-0.0369 0.5407 -0.1186
0.0897 -0.6398 0.0457
0.0763 -0.6725 0.0414
-0.0408 0.5923 -0.1270
0.0379 -0.2593 -0.0506
-0.0128 0.1038 -0.0373
-0.0849 0.7226 -0.1138
-0.0479 0.6688 -0.1580
-0.0239 0.4008 -0.1057
-0.0415 0.4456 -0.0696
0.0048 -0.0846 -0.0581
-0.0138 0.0797 -0.0319
0.0808 -0.5748 0.0232
-0.0513 0.5138 -0.0917
0.0901 -0.6126 0.0128
-0.0057 0.0451 -0.0364
-0.0328 0.2807 -0.0444
0.1053 -0.6696 0.0534
-0.0362 0.5475 -0.1263
0.0849 -0.6511 -0.0039
0.0848 -0.6659 -0.0010
0.0801 -0.6690 0.0587
0.0840 -0.6502 0.0661
0.0445 -0.3759 -0.0060
-0.0345 0.3888 -0.0705
-0.0189 0.1684 -0.0426
-0.0218 0.3560 -0.0944
-0.0348 0.4162 -0.1018
0.0355 -0.3399 -0.0428
0.0414 -0.2968 -0.0571
0.0046 0.0624 -0.0746
0.0326 -0.3345 -0.0281
-0.0234 0.3944 -0.1085
0.0756 -0.6244 0.0352
0.0584 -0.4620 0.0057
0.0497 -0.3598 -0.0381
-0.0557 0.6554 -0.1518
0.0762 -0.6210 -0.0034
-0.0277 0.4506 -0.1161
0.0355 -0.2780 -0.0609
-0.0094 0.0525 -0.0631
0.1001 -0.6729 0.0593
0.0419 -0.3859 -0.0399
-0.0445 0.4846 -0.0732
0.0201 -0.2128 -0.0176
-0.0330 0.5077 -0.1189
-0.0367 0.3513 -0.0521
0.0173 -0.1710 -0.0193
0.0666 -0.5099 0.0143
-0.0464 0.5360 -0.0864
0.0029 -0.0710 -0.0240
-0.0260 0.2337 -0.0450
-0.0055 0.1174 -0.0831
0.0559 -0.4391 0.0011
0.0217 -0.1090 -0.0685
0.1124 -0.7296 0.0384
-0.0355 0.2843 -0.0484
-0.0266 0.3770 -0.0867
0.0198 -0.2318 -0.0284
0.0806 -0.5854 -0.0145
-0.0607 0.6250 -0.1244
0.0739 -0.5875 0.0366
0.0787 -0.6024 -0.0140
0.0525 -0.4106 -0.0076
0.1201 -0.7345 0.0227
-0.0687 0.6529 -0.1005
0.0204 -0.1329 -0.0483
0.0751 -0.6066 -0.0090
-0.0211 0.1226 -0.0351
0.1063 -0.7165 0.0576
0.0060 -0.0370 -0.0719
-0.0379 0.3784 -0.0576
-0.0214 0.2450 -0.0846
-0.0186 0.3047 -0.0987
-0.0404 0.5970 -0.1319
0.0621 -0.4484 -0.0298
-0.0039 0.1187 -0.0849
0.0888 -0.6849 0.0714
0.0418 -0.3033 -0.0383
-0.0042 0.1028 -0.0629
-0.0323 0.3210 -0.0813
0.0559 -0.4972 -0.0009
0.0649 -0.5278 0.0191
-0.0649 0.6943 -0.1502
-0.0267 0.2160 -0.0617
-0.0062 -0.0041 -0.0300
0.0828 -0.6738 0.0072
0.1115 -0.7211 0.0447
-0.0180 0.3331 -0.1016
0.0487 -0.4469 -0.0059
0.0351 -0.2552 -0.0633
0.0445 -0.3412 -0.0259
-0.0536 0.6826 -0.1217
-0.0414 0.3607 -0.0571
0.0136 -0.0850 -0.0457
-0.0403 0.5235 -0.1212
0.0609 -0.4671 -0.0007
0.0362 -0.2436 -0.0597
-0.0455 0.6293 -0.1275
0.0673 -0.5533 0.0204
-0.0326 0.4268 -0.0875
0.0251 -0.2754 -0.0305
0.0218 -0.1694 -0.0678
-0.0017 -0.0318 -0.0574
0.0806 -0.5948 -0.0123
0.0787 -0.6743 0.0167
0.0534 -0.4813 -0.0202
0.0611 -0.5345 -0.0166
0.0240 -0.1380 -0.0704
-0.0226 0.3323 -0.1001
-0.0205 0.1189 -0.0344
-0.0797 0.7034 -0.1113
-0.0471 0.6401 -0.1494
-0.0605 0.6995 -0.1522
-0.0045 -0.0281 -0.0347
0.0223 -0.1233 -0.0722
0.1027 -0.6971 -0.0082
-0.0496 0.5278 -0.1080
-0.0154 0.1766 -0.0801
0.0741 -0.6279 0.0241
0.0745 -0.5266 -0.0146
0.0454 -0.3371 -0.0547
-0.0490 0.4717 -0.0783
0.0574 -0.4395 -0.0106
-0.0584 0.6323 -0.1310
-0.0177 0.2621 -0.0928
-0.0561 0.5699 -0.0908
0.0471 -0.3901 -0.0481
-0.0466 0.4223 -0.0610
0.1086 -0.7218 0.0516
-0.0245 0.1599 -0.0394
0.0757 -0.5439 -0.0232
0.0049 0.0342 -0.0663
-0.0769 0.7192 -0.1118
0.0272 -0.1638 -0.0665
-0.0515 0.4956 -0.0785
-0.0448 0.3988 -0.0567
0.0519 -0.3754 -0.0424
-0.0420 0.3741 -0.0617
-0.0535 0.6528 -0.1518
0.0888 -0.6083 0.0254
-0.0124 0.0847 -0.0338
0.0142 -0.0640 -0.0592
0.0685 -0.4924 -0.0254
-0.0488 0.4994 -0.0973
0.0212 -0.1769 -0.0655
0.0188 -0.1372 -0.0364
-0.0519 0.5818 -0.1269
-0.0554 0.5533 -0.0906
-0.0015 -0.0099 -0.0648
0.0610 -0.5015 -0.0312
-0.0432 0.6309 -0.1478
-0.0561 0.5630 -0.1005
-0.0321 0.3453 -0.0887
-0.0463 0.6169 -0.1445
-0.0423 0.4245 -0.0856
0.0951 -0.6403 0.0132
0.0705 -0.5184 -0.0309
-0.0489 0.5810 -0.0978
-0.0564 0.6021 -0.1263
-0.0547 0.5627 -0.1097
0.0206 -0.2294 -0.0215
0.0075 0.0370 -0.0780
0.0274 -0.1824 -0.0688
0.0027 -0.0174 -0.0363
0.0135 -0.1210 -0.0661
-0.0480 0.5583 -0.0913
0.0396 -0.3301 -0.0546
0.0745 -0.5487 0.0181
0.0118 -0.0045 -0.0736
0.0794 -0.6862 0.0587
-0.0482 0.5657 -0.0936
-0.0278 0.3423 -0.0722
-0.0262 0.1779 -0.0377
-0.0500 0.6708 -0.1283
0.0525 -0.3972 -0.0243
-0.0128 0.2556 -0.0957
-0.0640 0.6969 -0.1515
0.0196 -0.1067 -0.0737
0.0051 0.0493 -0.0718
-0.0436 0.6419 -0.1390
0.0038 0.0801 -0.0792
0.0131 -0.0359 -0.0782
0.0263 -0.2674 -0.0165
-0.0278 0.2003 -0.0452
0.0008 -0.0741 -0.0370
0.0680 -0.5501 -0.0245
0.0566 -0.4940 -0.0261
0.0754 -0.6607 0.0176
0.0213 -0.1180 -0.0603
0.0674 -0.5051 -0.0349
0.0785 -0.6450 0.0031
0.0064 -0.1197 -0.0391
-0.0108 0.1947 -0.0735
0.0667 -0.4903 -0.0329
-0.0482 0.5047 -0.0728
0.0925 -0.6788 -0.0023
-0.0364 0.3403 -0.0723
-0.0721 0.6637 -0.1257
0.0604 -0.4579 -0.0398
0.0302 -0.2449 -0.0626
-0.0333 0.2720 -0.0426
-0.0308 0.2605 -0.0617
-0.0341 0.2726 -0.0435
-0.0391 0.3306 -0.0489
-0.0115 0.1897 -0.0876
0.0739 -0.5293 -0.0031
0.0643 -0.5601 0.0031
0.0376 -0.2648 -0.0614
-0.0256 0.2444 -0.0485
-0.0508 0.5888 -0.1301
0.0817 -0.6681 0.0655
-0.0384 0.4604 -0.1071
0.0935 -0.6793 -0.0075
-0.0047 0.0455 -0.0716
0.0788 -0.5994 -0.0147
-0.0386 0.4065 -0.0931
-0.0378 0.5170 -0.1217
0.0338 -0.2462 -0.0366
0.0154 -0.1957 -0.0449
-0.0268 0.2436 -0.0723
0.0353 -0.3114 -0.0113
-0.0513 0.6544 -0.1542
0.0818 -0.6529 -0.0010
0.0619 -0.5257 -0.0232
-0.0868 0.7075 -0.1160
0.0394 -0.3712 -0.0079
-0.0429 0.6086 -0.1446
-0.0482 0.6934 -0.1487
0.0465 -0.3317 -0.0512
0.0300 -0.1879 -0.0634
0.0075 -0.1213 -0.0521
-0.0506 0.7035 -0.1434
0.0990 -0.6749 0.0668
-0.0184 0.1064 -0.0465
0.0784 -0.6065 -0.0122
0.0311 -0.2054 -0.0657
-0.0474 0.4786 -0.0898
0.0603 -0.5214 0.0081
0.0012 -0.0724 -0.0493
-0.0117 0.0482 -0.0312
0.0014 -0.0713 -0.0290
-0.0440 0.6567 -0.1508
-0.0518 0.7012 -0.1393
0.0895 -0.6382 0.0420
-0.0364 0.5424 -0.1286
-0.0344 0.5263 -0.1243
-0.0370 0.2999 -0.0477
-0.0153 0.1104 -0.0638
0.0321 -0.3177 -0.0154
0.0775 -0.6932 0.0299
0.1150 -0.7014 0.0494
-0.0389 0.5545 -0.1303
0.0092 -0.0688 -0.0365
0.0653 -0.4850 -0.0067
-0.0169 0.1458 -0.0706
