-0.300064 0.977725 -0.11737
-0.258514 0.949026 -0.047976
-0.24909 0.981581 -0.26344
-0.286785 0.948169 -0.208182
-0.252945 0.888627 -0.237738
-0.186121 1 -0.306275
-0.185265 0.919469 -0.298137
-0.300064 0.917755 -0.147783
-0.284215 0.886914 -0.0878132
-0.2855 0.857785 -0.179053
-0.290212 0.826944 -0.118655
-0.189976 0.817948 -0.279717
-0.254658 0.789248 -0.217605
-0.291069 0.766974 -0.149497
-0.281645 0.706575 -0.180338
-0.25166 0.72628 -0.217177
-0.229385 0.737845 -0.23988
-0.183979 0.75755 -0.276719
-0.251232 0.647034 -0.209895
-0.183551 0.677875 -0.269865
-0.209253 0.587064 -0.240737
-0.182694 0.599914 -0.265153
-0.179696 0.528807 -0.265582
-0.0499036 0.978582 -0.342686
0.0173485 0.957164 -0.349111
-0.117584 0.936603 -0.328122
-0.0499036 0.946455 -0.344828
-0.117156 0.859927 -0.328122
-0.153994 0.769544 -0.298993
-0.116299 0.782823 -0.324266
-0.0494753 0.874063 -0.35211
-0.0486185 0.803812 -0.352538
0.0846006 0.937032 -0.322981
0.0182052 0.87749 -0.356822
0.00449775 0.801671 -0.356822
0.0854573 0.862926 -0.324695
0.0858856 0.784536 -0.321696
-0.101306 0.713001 -0.322981
-0.0477618 0.704434 -0.340116
-0.118869 0.613622 -0.304562
-0.0473335 0.635896 -0.330692
-0.114586 0.544656 -0.302849
-0.112015 0.468409 -0.298993
-0.0370529 0.560934 -0.326837
-0.0460484 0.477833 -0.319126
0.0194903 0.722425 -0.349111
0.0199186 0.677019 -0.344828
0.0893125 0.710859 -0.327265
0.020347 0.642322 -0.341829
0.0880274 0.64018 -0.335404
0.0207753 0.553223 -0.338831
0.021632 0.488541 -0.336689
0.0884558 0.568216 -0.342686
0.0888841 0.524952 -0.346541
0.0888841 0.494538 -0.346969
0.121011 0.981581 -0.11223
0.109017 0.950739 -0.0526879
0.127008 0.952024 -0.20347
0.110302 0.922467 -0.294281
0.121439 0.891626 -0.233883
0.114586 0.921182 -0.143071
0.0991647 0.890341 -0.0835297
0.112015 0.860784 -0.173913
0.0944528 0.830371 -0.113943
0.115442 0.832084 -0.264725
0.108589 0.771686 -0.295567
0.115871 0.800814 -0.204755
0.10045 0.769972 -0.144785
0.127865 0.741272 -0.235168
0.123581 0.710431 -0.175198
0.151853 0.662883 -0.269437
0.153994 0.648319 -0.194474
0.157421 0.622189 -0.298137
0.183123 0.590919 -0.236025
0.156565 0.560934 -0.327265
0.156565 0.490683 -0.337546
0.197687 0.530949 -0.266438
0.195973 0.470979 -0.29728
-0.189548 0.993146 0.00385522
-0.188691 0.91647 0.00342686
-0.080317 0.97644 0.186764
-0.0550439 0.940887 0.240308
-0.152281 0.977297 0.0351253
-0.122296 0.944314 0.0929535
-0.141572 0.886914 0.0646819
-0.130006 0.856072 0.124652
-0.122724 0.881345 0.137931
-0.122296 0.824374 0.180338
-0.108589 0.91647 0.155922
-0.0858856 0.885629 0.215892
-0.0554723 0.764832 0.302849
-0.098308 0.794817 0.245449
0.0773185 0.875776 0.352966
0.0786036 0.740844 0.356822
-0.255515 0.869351 -0.0526879
-0.254658 0.795245 -0.0591133
-0.223817 0.8565 -0.0269865
-0.188263 0.841936 0.00257014
-0.183979 0.762262 -0.00257014
-0.279503 0.736132 -0.0890983
-0.253802 0.721996 -0.0608267
-0.294924 0.676162 -0.11994
-0.250803 0.634611 -0.0689655
-0.209253 0.705719 -0.0282716
-0.18655 0.691154 0.00128507
-0.1994 0.614907 0.000856715
-0.18655 0.647034 0.0175626
-0.200685 0.584493 0.0612551
-0.18655 0.641037 0.0912401
-0.203684 0.61405 0.152067
-0.18912 0.672735 0.18248
-0.217391 0.583208 0.211608
-0.191262 0.648747 0.245449
-0.216106 0.553652 0.121225
-0.232812 0.522382 0.180767
-0.242236 0.491968 0.241165
-0.18912 0.463697 0.304134
-0.18912 0.625187 0.278432
-0.285072 0.615764 -0.150782
-0.255943 0.581067 -0.082673
-0.252088 0.552795 -0.18505
-0.254658 0.519812 -0.110088
-0.223817 0.554937 -0.029985
-0.21525 0.524095 0.029985
-0.234954 0.494967 -0.0608267
-0.219961 0.464125 -0.000856715
-0.250375 0.46284 -0.148212
-0.230242 0.496252 -0.211608
-0.202399 0.436282 -0.242022
-0.181838 0.446134 -0.260441
-0.241379 0.40544 -0.18248
-0.238809 0.434997 -0.0916685
-0.22039 0.404155 -0.0312701
-0.241379 0.374598 -0.12251
-0.224245 0.344185 -0.0621118
-0.224673 0.493682 0.0903834
-0.241379 0.462412 0.149925
-0.221675 0.433712 0.0595417
-0.234526 0.402442 0.119512
-0.255087 0.442279 0.212894
-0.252517 0.375884 0.181623
-0.254658 0.416577 0.239452
-0.238381 0.401157 0.270293
-0.252517 0.340758 0.239452
-0.212679 0.373313 0.0286999
-0.219105 0.342472 0.0890983
-0.209681 0.313343 -0.00171343
-0.207111 0.28293 0.0582566
-0.235382 0.31163 0.14864
-0.24652 0.281217 0.20861
-0.217391 0.252088 0.118227
-0.23067 0.220818 0.178197
-0.161705 0.826515 0.0338402
-0.150568 0.796102 0.0938102
-0.155708 0.764832 0.154209
-0.163418 0.735704 0.0629685
-0.175412 0.704862 0.122939
-0.176697 0.675305 0.0321268
0.0820304 0.768259 0.00856715
0.0713215 0.708717 -0.0248447
0.0820304 0.730135 -0.0963804
0.0816021 0.809381 -0.0633969
0.0837438 0.651317 -0.0612551
0.0833155 0.677875 0.0346969
0.0828871 0.60634 -0.00171343
0.0833155 0.602484 0.0351253
-0.154851 0.734419 0.214179
-0.122724 0.769115 0.23217
-0.129578 0.711287 0.278432
0.0828871 0.470122 0.15635
0.0841722 0.399015 0.114371
0.0837438 0.4864 0.113086
0.0816021 0.438852 0.21632
0.0756051 0.374598 0.182909
0.0824588 0.441851 0.293425
0.0610409 0.343757 0.243307
0.0841722 0.308631 0.14607
0.0614693 0.283787 0.212037
0.0841722 0.216535 0.173056
-0.186978 0.321054 0.281002
-0.184836 0.24909 0.268152
-0.209681 0.190405 0.238167
-0.185265 0.181409 0.257014
-0.119297 0.320197 0.284001
-0.0516171 0.321482 0.283573
-0.104305 0.253802 0.272007
-0.117584 0.178411 0.264725
-0.0507603 0.243949 0.262583
-0.050332 0.180124 0.263011
0.015635 0.324052 0.280146
0.0164918 0.262369 0.252731
0.0229171 0.201542 0.249304
0.150139 0.980296 0.035982
0.111587 0.919897 0.00771043
0.145427 0.888627 0.077961
0.209681 0.952452 0.101092
0.184408 0.85907 0.128507
0.216963 0.830371 0.181623
0.0927393 0.859499 -0.0231313
0.10559 0.828657 0.0368387
0.147997 0.82009 0.108374
0.132577 0.798672 0.0972371
0.153138 0.770829 0.139644
0.101735 0.737845 0.0663954
0.120583 0.707432 0.126365
0.102592 0.67916 -0.115228
0.0974513 0.647034 0.0955237
0.0858856 0.587064 0.0646819
0.137717 0.646177 0.246734
0.0918826 0.52538 0.184622
0.092311 0.494967 0.24502
0.13686 0.619619 -0.14607
0.109874 0.588777 -0.0860998
0.153566 0.59049 -0.160634
0.136432 0.528807 -0.116513
0.153566 0.544656 -0.147355
0.169415 0.559649 -0.176055
0.092311 0.557935 -0.0261298
0.0867423 0.527094 0.0338402
0.111587 0.497965 -0.0565432
0.0978796 0.467124 0.0029985
0.155708 0.47055 -0.138359
0.18912 0.500107 -0.206897
0.195973 0.439709 -0.23731
0.175412 0.408867 -0.17734
0.12915 0.437995 -0.0873849
0.11073 0.407154 -0.0274149
0.149711 0.383594 -0.128507
0.121868 0.347184 -0.0578282
0.0897408 0.436282 0.0633969
0.100878 0.376312 0.0325552
0.0931677 0.34547 0.0925252
0.109874 0.316342 0.00171343
0.103877 0.285072 0.0616834
0.0965946 0.254658 0.122082
-0.04562 0.43671 -0.316984
0.021632 0.409295 -0.330263
0.0897408 0.406725 -0.335832
0.145427 0.411437 -0.324695
-0.180981 0.405869 -0.257871
-0.22296 0.34547 -0.212894
-0.168559 0.372028 -0.263868
-0.183123 0.278218 -0.250161
-0.243093 0.314628 -0.152924
-0.233241 0.283787 -0.0929535
-0.238809 0.254658 -0.184194
-0.243521 0.223817 -0.123795
-0.222532 0.19426 -0.214607
-0.179268 0.213536 -0.250161
-0.246948 0.163418 -0.155065
-0.179268 0.13429 -0.245449
-0.237524 0.103877 -0.185479
-0.216535 0.253373 -0.0325552
-0.204969 0.222532 0.0274149
-0.231527 0.193403 -0.0633969
-0.214393 0.162562 -0.00342686
-0.204112 0.192118 0.0873849
-0.209681 0.161277 0.147783
-0.198972 0.132148 0.0569715
-0.18912 0.101306 0.116942
-0.247805 0.104305 -0.109659
-0.248233 0.0777468 -0.134933
-0.247376 0.0576141 -0.0955237
-0.244806 0.133005 -0.0942386
-0.229385 0.102163 -0.0342686
-0.241808 0.0421932 -0.0651103
-0.206682 0.0717498 0.0261298
-0.181409 0.0391947 0.0843864
-0.220818 0.0117798 -0.00471193
-0.185265 -0.0242022 0.0651103
-0.204969 0.0439066 -0.215464
-0.178411 0.0550439 -0.236882
-0.177554 0.0113515 -0.23217
-0.245663 0.0139216 -0.147783
-0.245663 -0.0773185 -0.126365
-0.247376 -0.00878132 -0.0856715
-0.217391 -0.0469051 -0.186335
-0.165988 -0.0207753 -0.236453
-0.234097 -0.0490469 -0.0355537
-0.206682 -0.0794603 0.0248447
-0.245235 -0.118012 -0.0715357
-0.22553 -0.13943 -0.00642536
-0.173699 -0.10559 -0.214179
-0.226387 -0.137717 -0.157207
-0.174984 -0.197259 -0.186335
-0.246091 -0.174556 -0.104091
-0.243949 -0.193832 -0.047976
-0.228957 -0.228957 -0.128079
-0.241808 -0.259799 -0.0681088
-0.112872 0.387878 -0.293425
-0.0961662 0.321054 -0.296423
-0.0451917 0.399872 -0.314414
-0.0447633 0.31163 -0.311416
-0.118441 0.218676 -0.281002
-0.0439066 0.244378 -0.307561
-0.0421932 0.167274 -0.302849
-0.111159 0.152709 -0.277576
0.0224888 0.329193 -0.322125
0.0901692 0.328336 -0.317841
0.0233455 0.282502 -0.319126
0.0233455 0.250803 -0.317413
0.0237738 0.159563 -0.313558
0.0905976 0.293639 -0.313129
0.0905976 0.247805 -0.308846
0.098308 0.166845 -0.303277
-0.109874 0.0756051 -0.274577
-0.109874 -0.00149925 -0.272864
-0.0426215 0.0897408 -0.300278
-0.0379096 0.0169201 -0.303277
-0.106447 -0.07432 -0.270722
-0.0417648 -0.0597558 -0.304562
-0.0409081 -0.135147 -0.306275
0.0246305 0.0965946 -0.311844
0.0254873 0.00835297 -0.313986
0.092311 0.0931677 -0.303705
0.0970229 0.0164918 -0.303705
0.0259156 -0.0516171 -0.318698
0.0267723 -0.123581 -0.326408
0.0935961 -0.0537588 -0.312272
0.0944528 -0.126151 -0.319983
-0.109874 -0.168559 -0.249304
-0.201114 0.130435 0.207753
-0.184408 0.118869 0.230885
-0.181409 0.0807453 0.167059
-0.178411 -0.120583 0.0745342
-0.193403 -0.169844 0.0544014
-0.180124 -0.183551 0.0813879
-0.217391 -0.230242 0.0231313
-0.180981 -0.259799 0.094667
-0.226815 -0.29064 -0.00771043
-0.197687 -0.321054 0.0526879
-0.174984 -0.346327 0.103234
-0.117156 0.10816 0.254016
-0.117156 0.0477618 0.242022
-0.0507603 0.102592 0.270293
-0.0490469 0.021632 0.276719
-0.156565 0.0109231 0.146927
-0.116299 -0.0207753 0.209467
-0.156565 -0.0494753 0.116085
-0.118012 -0.0833155 0.183765
-0.0499036 -0.0477618 0.274149
-0.0828871 -0.110302 0.23731
-0.0477618 -0.127008 0.271579
0.0374813 0.109445 0.274577
0.0854573 0.13429 0.223174
0.0854573 0.0820304 0.26087
0.0854573 0.015635 0.29214
0.0653245 -0.141144 0.29728
-0.136003 -0.140287 0.145641
-0.161705 -0.200257 0.1148
-0.111587 -0.171985 0.2009
-0.138145 -0.23067 0.175198
-0.114586 -0.258514 0.236882
-0.0550439 -0.190833 0.272007
-0.162133 -0.291069 0.143928
-0.147569 -0.32191 0.204326
-0.15785 -0.381881 0.173485
-0.0469051 -0.288499 0.289998
-0.124866 -0.420861 0.250161
-0.0451917 -0.434568 0.305419
0.0884558 -0.296209 0.288713
0.0893125 -0.434997 0.310559
0.0888841 -0.36646 0.298137
-0.177126 -0.29064 -0.160634
-0.216535 -0.319769 -0.0985222
-0.180981 -0.374598 -0.138788
0.0272007 -0.18912 -0.32855
0.0948811 -0.164703 -0.319983
-0.111159 -0.263654 -0.224459
-0.0691797 -0.225958 -0.276719
-0.0400514 -0.213536 -0.300278
-0.039623 -0.261084 -0.29471
-0.0816021 -0.31677 -0.247591
-0.027629 -0.290212 -0.298137
-0.142857 -0.348469 -0.188477
-0.107303 -0.330478 -0.222317
-0.039623 -0.377597 -0.278861
-0.10816 -0.411009 -0.221889
-0.16042 -0.43928 -0.159349
-0.175412 -0.404155 -0.141786
-0.13172 -0.49925 -0.189762
-0.106447 -0.483401 -0.220176
-0.0730349 -0.467552 -0.248876
-0.038338 -0.454273 -0.274149
0.0280574 -0.276076 -0.323838
0.0948811 -0.20197 -0.319555
0.106447 -0.287642 -0.310131
0.0284858 -0.3142 -0.321268
0.0289141 -0.355322 -0.317413
0.0250589 -0.440137 -0.311844
0.0961662 -0.357892 -0.310987
0.102163 -0.43671 -0.308846
-0.101735 -0.557079 -0.217605
-0.0293425 -0.524095 -0.274149
-0.0387663 -0.620476 -0.252302
0.0301992 -0.511673 -0.308846
0.0306275 -0.581495 -0.298137
0.0978796 -0.509959 -0.310131
0.098308 -0.58535 -0.306704
0.033626 -0.677447 -0.277576
0.0991647 -0.66888 -0.295567
0.0991647 -0.704862 -0.293853
-0.214821 -0.350182 -0.0385522
-0.192975 -0.381024 0.0218462
-0.193832 -0.410152 -0.0689655
-0.177126 -0.445706 -0.00813879
-0.177554 -0.398586 0.0569715
-0.173699 -0.466267 -0.0972371
-0.171985 -0.862926 -0.071964
-0.172842 -0.803812 -0.0325552
-0.172842 -0.768259 -0.101092
-0.177554 -0.893339 -0.0128507
-0.172842 -0.866781 0.000856715
-0.169844 -0.922467 0.0304134
-0.167274 -0.411009 0.0822446
-0.150568 -0.441851 0.142643
-0.154423 -0.470979 0.0518312
-0.132148 -0.501821 0.111801
-0.163418 -0.500535 -0.0389805
-0.150139 -0.530092 -0.129792
-0.150996 -0.560505 -0.0698222
-0.142 -0.531377 0.0209895
-0.112444 -0.566931 0.0916685
-0.139002 -0.591347 -0.00985222
-0.111587 -0.626473 0.0603984
-0.13429 -0.472692 0.203041
-0.104305 -0.498394 0.254016
-0.111159 -0.538231 0.173056
-0.0820304 -0.562647 0.232598
-0.000642536 -0.593917 0.295567
-0.0914543 -0.592204 0.141786
-0.050332 -0.628186 0.213322
-0.0875991 -0.652174 0.111373
-0.0460484 -0.686871 0.17991
0.0871707 -0.641037 0.325123
-0.00578282 -0.653031 0.263011
0.0246305 -0.66631 0.290426
-0.0100664 -0.713429 0.23217
0.027629 -0.753695 0.283573
-0.133433 -0.590062 -0.160206
-0.146284 -0.620476 -0.100664
-0.10816 -0.661598 -0.201756
-0.149711 -0.680874 -0.131077
-0.147141 -0.651317 -0.0406939
-0.13172 -0.682159 0.0197044
-0.162133 -0.711287 -0.0715357
-0.154423 -0.742129 -0.0115656
-0.149711 -0.740844 -0.161919
-0.104305 -0.718569 -0.204755
-0.10302 -0.800386 -0.192332
-0.0734633 -0.709574 -0.221032
-0.0361962 -0.70015 -0.238167
-0.0361962 -0.732705 -0.232598
-0.0357678 -0.782395 -0.225744
-0.156136 -0.831656 -0.132791
0.0250589 -0.779824 -0.261298
0.0995931 -0.745556 -0.292996
-0.10816 -0.712144 0.0822446
-0.136003 -0.772971 0.0492611
-0.106875 -0.807239 0.105804
-0.0721782 -0.742986 0.140501
-0.0379096 -0.78368 0.190619
-0.0588991 -0.833797 0.170058
-0.0400514 -0.84622 0.195331
-0.159135 -0.833369 0.017991
-0.128721 -0.863354 0.0788177
-0.106447 -0.880488 0.11223
-0.107303 -0.952452 0.114371
-0.0867423 -0.894196 0.138788
-0.0370529 -0.928036 0.195331
-0.0464768 -0.988863 0.177768
0.0186335 -0.808524 0.271579
-0.0122082 -0.864211 0.230456
0.157421 0.340758 -0.288713
0.133433 0.31934 -0.29985
0.157421 0.308203 -0.277576
0.185265 0.379739 -0.268152
0.180981 0.348897 -0.208182
0.175412 0.288927 -0.239023
0.134718 0.287214 -0.08867
0.156993 0.328336 -0.137931
0.155708 0.22296 -0.124652
0.175412 0.258085 -0.179053
0.157421 0.228957 -0.26858
0.158706 0.151853 -0.267723
0.184836 0.198115 -0.209467
0.176269 0.167274 -0.149925
0.181838 0.138145 -0.240308
0.194688 0.107303 -0.180338
0.117584 0.255943 -0.0286999
0.109874 0.22553 0.0312701
0.127436 0.196402 -0.0595417
0.112872 0.16556 0.000428357
0.106018 0.194688 0.0912401
0.0995931 0.163847 0.15121
0.109445 0.134718 0.0603984
0.114157 0.103877 0.120368
0.153994 0.126151 -0.101949
0.119297 0.105162 -0.029985
0.139859 0.04562 -0.0608267
0.157421 0.0601842 -0.0882416
0.176269 0.0764618 -0.11994
0.112015 0.07432 0.029985
0.122296 0.0439066 0.089955
0.122724 0.0147783 -0.000428357
0.12915 -0.0160634 0.0595417
0.159135 0.0781752 -0.270722
0.159991 0.00406939 -0.275862
0.204112 0.0477618 -0.210752
0.199829 -0.0126365 -0.241593
0.16556 -0.0850289 -0.282716
0.133005 -0.133433 -0.303705
0.15785 0.0169201 -0.0749625
0.207111 0.0169201 -0.150782
0.180553 -0.01435 -0.0908117
0.226387 -0.0434783 -0.181195
0.210538 -0.0738916 -0.121225
0.15528 -0.0529021 -0.0424074
0.142429 -0.0760334 0.0286999
0.160848 -0.125723 0.00342686
0.178839 -0.104733 -0.0612551
0.161705 -0.142 -0.286143
0.224673 -0.103448 -0.212037
0.226815 -0.144999 -0.157635
0.205397 -0.163418 -0.243307
0.228957 -0.196402 -0.18505
0.201114 -0.164703 -0.0920968
0.183123 -0.195973 -0.0321268
0.218248 -0.224673 -0.12251
0.2281 -0.207539 -0.156779
0.197259 -0.255515 -0.0629685
0.118012 0.0421932 0.240737
0.119726 0.0734633 0.181195
0.136432 0.0134933 0.150353
0.149711 -0.0417648 0.194903
0.144999 -0.0464768 0.119512
0.156136 -0.119726 0.0873849
0.164275 -0.137289 0.149068
0.165988 -0.166845 0.0582566
0.172842 -0.197259 0.118227
0.159135 -0.26194 0.244592
0.176269 -0.2281 0.178625
0.177982 -0.226815 0.0278432
0.180553 -0.257657 0.0878132
0.185265 -0.286357 -0.0029985
0.184408 -0.317199 0.0569715
0.186121 -0.28807 0.147783
0.184836 -0.318484 0.208182
0.189976 -0.34804 0.11737
0.19426 -0.378882 0.17734
0.156136 -0.352324 0.265582
0.128721 -0.440565 0.296852
0.157421 -0.430285 0.277147
0.183979 -0.409724 0.23731
0.166417 -0.22553 -0.276719
0.162562 -0.299636 -0.274149
0.219961 -0.253802 -0.21375
0.19683 -0.3142 -0.244592
0.228957 -0.286357 -0.145641
0.213108 -0.315913 -0.0933819
0.230242 -0.34547 -0.184622
0.228957 -0.381881 -0.132791
0.162562 -0.374598 -0.274149
0.164275 -0.452131 -0.272435
0.214821 -0.405012 -0.215035
0.231099 -0.43671 -0.156779
0.190405 -0.46541 -0.246305
0.221675 -0.495824 -0.185479
0.163418 -0.524952 -0.27372
0.16556 -0.605055 -0.270293
0.209253 -0.555794 -0.21632
0.189976 -0.616192 -0.247591
0.159563 -0.669308 -0.274577
0.19683 -0.346327 -0.0338402
0.190833 -0.377169 0.0265582
0.214393 -0.406725 -0.0642536
0.205826 -0.437567 -0.00428357
0.193403 -0.408439 0.0865282
0.19683 -0.438852 0.146498
0.204112 -0.46798 0.0561148
0.206254 -0.498822 0.116085
0.23067 -0.4577 -0.089955
0.228957 -0.497965 -0.0428357
0.231099 -0.507818 -0.161919
0.227244 -0.534804 0.0218462
0.229814 -0.55151 0.0890983
0.228529 -0.543371 0.0556864
0.240951 -0.526237 -0.125509
0.250803 -0.557079 -0.0651103
0.252088 -0.58792 -0.00471193
0.260655 -0.618334 0.0552581
0.16299 -0.488113 0.272864
0.192975 -0.469694 0.206897
0.204969 -0.529664 0.176055
0.186978 -0.560505 0.236025
0.227672 -0.566074 0.157207
0.226387 -0.623474 0.200043
0.227672 -0.742129 0.297708
0.239666 -0.589205 0.14607
0.271364 -0.648747 0.115228
0.258942 -0.680017 0.175626
0.239238 -0.710859 0.235168
0.238381 -0.581067 -0.166203
0.234097 -0.64789 -0.188049
0.166845 -0.752838 -0.277147
0.215678 -0.707004 -0.217605
0.233241 -0.718569 -0.194474
0.203256 -0.766974 -0.248447
0.240523 -0.792247 -0.197901
0.269223 -0.617049 -0.0955237
0.276505 -0.677019 -0.126365
0.273934 -0.647462 -0.0355537
0.276933 -0.678304 0.0248447
0.280788 -0.707432 -0.065967
0.275648 -0.738274 -0.00642536
0.258085 -0.736989 -0.157207
0.270079 -0.76783 -0.0968087
0.266652 -0.798672 -0.0372671
0.26194 -0.828229 -0.12765
0.263226 -0.858642 -0.0676804
0.286785 -0.709145 0.0848147
0.278218 -0.739987 0.144785
0.285072 -0.769115 0.0544014
0.281645 -0.799957 0.113943
0.25937 -0.770829 0.204755
0.256372 -0.801242 0.264725
0.269651 -0.830799 0.173913
0.268366 -0.861641 0.234311
0.273078 -0.829085 0.0231313
0.275648 -0.860356 0.0835297
0.269651 -0.889056 -0.00771043
0.276933 -0.920326 0.0526879
0.273078 -0.890769 0.143071
0.277361 -0.921611 0.20347
0.27779 -0.950739 0.112658
0.286785 -0.981581 0.172628
-0.169844 -0.953309 -0.0346969
-0.183551 -0.984151 0.0162776
-0.0301992 -0.858642 -0.219747
-0.104305 -0.893339 -0.165774
-0.139002 -0.922467 -0.103234
-0.103448 -0.983722 -0.135361
-0.0618976 -0.950739 -0.193617
-0.0344828 -0.941315 -0.21118
0.032341 -0.838938 -0.261298
0.0297708 -0.924609 -0.257014
0.0648961 -0.828229 -0.281002
0.100021 -0.821375 -0.293853
0.10045 -0.850932 -0.292568
0.100878 -0.899764 -0.288713
0.101306 -0.977297 -0.278432
0.0340544 -0.993575 -0.255729
0.172414 -0.829085 -0.281859
0.16813 -0.904476 -0.277147
0.238809 -0.860784 -0.223174
0.210538 -0.917755 -0.249732
0.235382 -0.930178 -0.225316
0.168987 -0.953737 -0.269008
0.168987 -0.988006 -0.262583
0.264082 -0.888199 -0.158492
0.267509 -0.918612 -0.0985222
0.260227 -0.948169 -0.189762
0.269651 -0.979011 -0.128936
0.279503 -0.949026 -0.0381238
0.300064 -0.9713 0.0231313
0.0353395 -0.889484 0.281859
0.0614693 -0.834226 0.322553
0.0272007 -0.953309 0.261298
0.0953095 -0.986721 0.319555
0.267509 -0.832084 0.324695
0.283787 -0.892054 0.294281
0.296209 -0.964446 0.274149
0.296637 -0.976869 0.326837
0.298351 -1 0.209038
