0.0461 -0.2245 0.0087
-0.0218 -0.2405 -0.0402
-0.0110 0.4622 -0.0959
0.0325 -0.4863 0.0109
-0.0694 0.5854 -0.0030
-0.0507 0.1710 0.0291
-0.0212 0.6925 -0.1498
0.0952 -0.6017 -0.0464
0.0295 -0.4528 0.0208
0.0706 -0.6105 -0.0788
0.0510 -0.3384 -0.1194
-0.0588 0.2747 -0.0921
0.0702 -0.5756 -0.0888
0.1092 -0.7054 0.0690
0.0692 -0.3891 -0.0968
-0.0859 0.6875 -0.1605
-0.0972 0.7095 -0.1401
-0.0605 0.4903 -0.1091
0.0778 -0.4518 -0.0419
0.1114 -0.7250 0.0576
0.0512 -0.3790 0.0466
-0.0394 0.0763 -0.1001
0.0846 -0.5751 0.0518
0.0688 -0.5952 -0.0808
0.0151 -0.0172 -0.1277
0.0310 0.1716 -0.1162
0.0207 0.0100 -0.0423
0.0028 -0.0216 0.0424
0.0320 0.0054 -0.1244
0.0004 0.0854 0.0097
0.0632 -0.6113 -0.0696
0.0616 -0.5119 -0.1005
-0.0151 0.0310 -0.1152
-0.0367 0.6476 -0.0854
0.0541 -0.4525 0.0403
0.0307 -0.5691 -0.0449
-0.0354 0.4732 -0.1326
0.1022 -0.6896 0.0789
-0.0081 -0.1638 0.0295
0.0755 -0.6913 -0.0378
0.0798 -0.4883 -0.0755
0.0538 -0.5053 -0.0977
0.0776 -0.4136 -0.0638
-0.0539 0.6975 -0.1734
-0.0107 0.3459 -0.1393
-0.0357 -0.1754 -0.0232
0.0278 -0.1663 -0.1241
-0.0429 0.3793 -0.1284
0.1436 -0.7241 -0.0200
-0.0575 0.1345 -0.0606
0.0353 -0.4952 -0.0839
-0.0692 0.2962 -0.0258
-0.0044 0.4976 -0.1243
0.0386 -0.0019 -0.0872
-0.0304 0.1744 0.0271
0.0872 -0.5914 -0.0748
0.1026 -0.6269 0.0438
-0.0116 0.2495 -0.0249
-0.0665 0.5584 0.0029
0.0610 -0.6165 0.0760
0.0822 -0.6000 -0.0838
-0.0702 0.6049 -0.0713
0.1455 -0.6833 0.0383
-0.0099 0.1719 -0.0028
-0.0676 0.6515 -0.0174
0.0756 -0.6123 -0.0819
-0.0330 0.7202 -0.1242
0.0923 -0.5711 -0.0541
-0.0710 0.5569 -0.0599
-0.0599 0.1578 -0.0060
0.0573 -0.2171 -0.0645
-0.0541 0.4480 -0.1196
-0.0540 0.1197 0.0081
0.1052 -0.6375 0.0261
-0.0624 0.6175 -0.0113
-0.0648 0.2548 0.0045
0.0141 0.2853 -0.1284
-0.0728 0.4078 -0.0015
-0.0509 -0.0315 -0.0167
-0.0766 0.5208 0.0029
-0.0332 0.6284 -0.0895
0.0435 -0.2921 0.0419
-0.0823 0.6618 -0.1435
0.0611 -0.6619 0.0861
-0.0124 0.4875 -0.1432
0.0177 0.2301 -0.1344
-0.0738 0.3478 -0.0168
0.0807 -0.6854 -0.0438
-0.0709 0.5949 -0.0589
0.1120 -0.6219 -0.0764
0.0367 -0.5532 -0.0099
-0.0446 0.0185 -0.0063
0.1106 -0.6844 -0.0752
0.0181 0.0973 -0.1321
-0.0735 0.5754 -0.0380
0.0507 -0.5877 -0.0701
-0.0578 0.2395 0.0235
0.0896 -0.6535 -0.0934
-0.0708 0.6363 -0.0130
-0.0719 0.4428 -0.0450
-0.0255 -0.1218 0.0316
-0.0404 0.0330 0.0187
-0.0051 0.2628 -0.1384
-0.1107 0.7024 -0.1140
0.0208 -0.0265 -0.0159
0.0843 -0.5820 -0.0813
-0.0768 0.6869 -0.0663
-0.0361 0.7017 -0.1061
0.0372 -0.4963 0.0224
-0.0391 0.2977 0.0194
-0.0041 0.4845 -0.1197
-0.0002 0.3295 -0.1399
-0.0362 0.6240 -0.0777
0.0741 -0.4189 -0.0842
-0.0605 0.1352 -0.0373
-0.0487 0.5770 -0.0137
-0.0751 0.4441 -0.0131
0.0171 -0.4364 -0.0135
-0.0641 0.2279 -0.0165
-0.0248 -0.0715 -0.0983
0.0096 0.3041 -0.1339
-0.0626 0.6332 -0.1503
0.1148 -0.6536 -0.0824
-0.0072 0.5026 -0.1419
-0.0753 0.6010 -0.0924
-0.0484 0.2355 0.0258
-0.0196 0.4708 -0.1402
-0.0340 0.6932 -0.1064
0.0838 -0.5020 -0.0473
0.0264 0.0338 -0.1392
0.0634 -0.3850 0.0048
0.0947 -0.5770 -0.0633
0.0174 -0.2215 -0.1178
-0.0632 0.4019 0.0157
0.0590 -0.2208 -0.0937
-0.0712 0.5711 -0.0131
0.0531 -0.7028 -0.0004
-0.0362 0.6504 -0.0855
0.1024 -0.5960 0.0097
0.0040 0.3046 -0.1406
0.0349 -0.2427 -0.1250
0.0653 -0.5883 0.0666
0.0186 -0.3650 -0.0988
0.0550 -0.1726 -0.0874
-0.0704 0.3198 -0.0061
0.0202 -0.3098 0.0472
-0.0384 0.3308 0.0127
0.0359 -0.1681 0.0129
0.0023 -0.3462 0.0159
0.0037 -0.3662 -0.0163
-0.0098 -0.1145 0.0394
0.0444 -0.4778 -0.0944
-0.0819 0.6636 -0.0318
0.0627 -0.4283 -0.1026
-0.0346 0.5762 -0.0470
0.0289 -0.5286 -0.0294
-0.0453 0.6972 -0.1721
-0.0419 0.3006 -0.1238
-0.0339 0.3539 -0.0041
0.0969 -0.5951 -0.0793
0.0482 -0.6051 0.0052
-0.0061 0.6025 -0.1537
-0.0091 0.5221 -0.1206
-0.0150 0.5104 -0.1449
-0.0788 0.6306 -0.0849
0.0140 0.0278 -0.1326
0.0349 -0.1518 -0.1240
0.0986 -0.6888 -0.0644
-0.0688 0.4585 -0.0882
-0.0309 0.3969 -0.1329
0.0457 -0.3960 -0.1124
-0.0620 0.2263 0.0119
-0.0868 0.6373 -0.0858
0.0031 0.1793 -0.1387
0.0112 0.3197 -0.1139
0.0938 -0.6245 0.0589
-0.0369 0.6395 -0.0809
-0.0687 0.3781 0.0089
0.0245 -0.4871 -0.0228
0.0385 -0.0727 -0.1193
0.0767 -0.5912 -0.0843
-0.0083 0.0570 0.0337
-0.0636 0.6152 -0.0086
-0.0307 -0.1733 -0.0731
0.0066 -0.3107 -0.0915
0.1340 -0.7417 -0.0192
0.0285 0.2272 -0.1178
0.0310 -0.4195 -0.0975
-0.0011 -0.1387 0.0376
-0.0745 0.4756 -0.0053
-0.0354 0.5982 -0.0504
0.0914 -0.5582 0.0090
-0.0367 -0.1473 0.0075
-0.0516 0.5386 -0.1264
0.0955 -0.5890 -0.0369
0.0528 -0.6028 0.0431
-0.0906 0.7313 -0.1234
-0.0208 0.6830 -0.1654
-0.0174 0.6828 -0.1576
-0.0698 0.3460 0.0061
-0.0741 0.6878 -0.1699
-0.0739 0.7384 -0.0912
0.0077 -0.1027 -0.1195
0.0253 0.1372 -0.1231
-0.0393 0.4259 -0.0009
0.0739 -0.5828 0.0716
0.0023 0.4312 -0.1184
0.0949 -0.5745 -0.0206
0.0024 -0.2243 -0.1005
-0.0741 0.6191 -0.0101
0.0631 -0.7023 0.0690
0.0597 -0.5678 -0.0860
-0.0220 0.1876 -0.1291
0.0089 0.0268 -0.0033
-0.0665 0.2921 -0.0633
-0.0287 0.5955 -0.0994
-0.0125 -0.2389 -0.0843
-0.0308 0.4889 -0.0499
-0.0369 0.5977 -0.0486
0.0203 -0.1021 -0.1264
-0.0037 -0.3279 -0.0785
0.0587 -0.4597 0.0397
0.0213 -0.4721 -0.0698
0.0055 -0.3694 -0.0062
0.0551 -0.5971 -0.0698
-0.0323 0.5794 -0.0386
0.0346 -0.6457 0.0446
-0.0253 0.0067 -0.1062
-0.0419 0.2856 0.0235
-0.0271 0.3325 -0.1325
-0.0491 0.0148 -0.0533
0.0436 -0.6105 -0.0314
-0.0283 0.5692 -0.1677
-0.0033 0.4088 -0.1018
-0.0715 0.7049 -0.1672
-0.0330 0.6930 -0.1744
-0.0013 0.1284 -0.0156
0.0975 -0.5874 0.0356
0.1411 -0.6883 -0.0474
-0.0027 0.2012 -0.0335
0.0592 -0.6142 -0.0665
0.0659 -0.7052 -0.0182
0.0289 -0.5536 -0.0375
0.0850 -0.5410 -0.0707
0.0963 -0.6387 0.0702
-0.0037 0.2958 -0.0599
0.0993 -0.6622 0.0884
0.0016 0.0128 0.0328
0.0587 -0.4612 -0.1021
0.0690 -0.6289 -0.0671
-0.0459 0.6272 -0.1583
-0.0382 0.2340 0.0224
0.0662 -0.7297 0.0581
0.0106 0.2866 -0.1014
0.0413 -0.6004 -0.0434
0.0150 -0.4552 -0.0430
0.0227 0.1962 -0.1217
-0.0272 0.4764 -0.1360
0.0457 -0.6957 0.0626
-0.0726 0.4840 0.0078
-0.0136 -0.2988 -0.0436
-0.0396 0.6443 -0.1668
-0.0521 0.0877 -0.0593
-0.0125 0.1390 0.0160
0.0532 -0.3417 0.0284
-0.0965 0.7230 -0.1284
0.0468 -0.0864 -0.0948
-0.0764 0.6753 -0.0281
0.0300 -0.5393 -0.0552
0.0444 -0.1794 -0.0167
-0.0416 -0.0935 -0.0314
-0.0066 0.3982 -0.1426
0.0697 -0.6812 -0.0366
0.0910 -0.5515 -0.0023
-0.0423 0.6808 -0.1784
0.1010 -0.6097 0.0571
-0.0786 0.7413 -0.0990
0.0491 -0.6380 0.0749
0.1146 -0.7174 0.0591
0.0673 -0.6803 0.0822
0.1208 -0.7513 -0.0130
-0.0065 0.4790 -0.1114
-0.0733 0.5458 -0.0785
-0.0686 0.3757 -0.0770
0.0619 -0.2366 -0.0887
-0.0538 0.0719 -0.0476
-0.0195 0.1190 -0.1239
0.0558 -0.6037 0.0658
-0.0531 0.0481 -0.0285
0.0588 -0.6356 0.0849
-0.0385 0.1724 0.0281
-0.0288 0.5559 -0.0754
0.0755 -0.4677 -0.0848
0.0483 -0.5909 -0.0671
0.1477 -0.7193 0.0170
0.0727 -0.4937 0.0253
0.0215 -0.4253 0.0163
0.0558 -0.4102 -0.1095
-0.0654 0.5434 0.0112
-0.0149 0.6502 -0.1496
-0.0495 -0.0171 -0.0397
0.0365 -0.5850 -0.0307
0.0029 0.3320 -0.0921
0.0067 0.3180 -0.1381
0.0501 -0.0412 -0.0939
0.0130 0.3324 -0.1262
-0.0411 0.1112 0.0331
-0.0457 0.7005 -0.1728
-0.0205 -0.2569 -0.0641
0.0328 0.1281 -0.1074
-0.0343 0.5250 -0.0426
-0.0384 -0.1433 -0.0444
0.0277 -0.4386 -0.0891
0.0372 -0.4278 0.0322
-0.0257 0.2478 -0.1318
-0.0668 0.2756 0.0128
0.1031 -0.6419 0.0578
0.0468 -0.7113 0.0150
0.0383 -0.0140 -0.1162
0.0042 -0.0339 -0.1221
-0.0675 0.5993 -0.0027
-0.0696 0.1934 -0.0233
-0.0608 0.1572 -0.0566
-0.0728 0.6268 -0.0100
0.0670 -0.4407 -0.0986
-0.0296 0.0944 -0.1111
0.0758 -0.5653 -0.0876
-0.0684 0.4898 0.0117
-0.0370 0.5514 -0.0308
0.0073 0.3652 -0.1333
-0.0203 0.5653 -0.1631
0.0009 0.4535 -0.1284
0.0170 0.2638 -0.1197
-0.0443 0.5869 -0.1515
-0.0680 0.6385 -0.0145
-0.0336 0.5391 -0.0496
0.0455 -0.2591 0.0208
-0.0482 0.2224 -0.1010
0.0016 -0.3733 -0.0550
-0.0768 0.6907 -0.0288
0.0951 -0.6257 0.0493
0.0663 -0.2854 -0.0940
0.0034 0.1589 -0.0453
0.0392 -0.6530 0.0014
-0.0071 -0.2806 0.0227
-0.0372 0.4356 -0.0112
-0.0720 0.3912 0.0071
0.0268 0.0781 -0.1265
-0.0147 0.4114 -0.1396
-0.0267 -0.1772 0.0227
-0.0481 0.1017 0.0194
0.0800 -0.5196 0.0071
0.0654 -0.5586 -0.0921
-0.0250 0.6877 -0.1698
0.0196 -0.0681 0.0267
0.0795 -0.6329 -0.0863
-0.0750 0.5132 0.0151
0.0052 0.2471 -0.0722
-0.0566 0.1927 -0.0808
0.0531 -0.1463 -0.1009
0.0099 -0.2842 -0.1015
-0.0722 0.5369 0.0023
0.0592 -0.0447 -0.1242
-0.0115 0.5696 -0.1597
-0.0097 0.6101 -0.1616
-0.0218 0.5152 -0.0862
0.0404 -0.5857 -0.0582
0.0530 -0.7233 0.0528
-0.0443 0.2224 0.0282
-0.0227 0.6918 -0.1401
-0.0195 0.5356 -0.1016
-0.0482 0.5267 0.0040
-0.0627 0.5722 -0.0005
-0.0571 0.5498 0.0038
0.0153 -0.4030 0.0066
-0.0207 0.6627 -0.1751
0.0052 0.3859 -0.1211
-0.0476 0.1759 0.0303
0.0075 -0.4063 -0.0354
0.0226 -0.4436 -0.0834
0.0690 -0.3168 -0.0807
0.0161 -0.2863 -0.1060
-0.0245 0.4403 -0.1402
-0.0197 0.2137 0.0027
-0.0711 0.3919 -0.0483
0.0100 0.0641 -0.0248
0.0664 -0.6566 -0.0418
-0.0530 0.6882 -0.1764
-0.0178 -0.1658 -0.0910
0.0122 -0.4292 -0.0597
0.0220 0.1508 -0.1285
-0.0257 0.7134 -0.1459
-0.0034 0.4758 -0.1333
-0.0213 0.0179 0.0320
-0.0050 0.5473 -0.1362
0.1005 -0.6807 0.0826
0.0027 -0.3226 -0.0025
-0.0696 0.2701 -0.0030
0.0455 -0.5775 0.0057
0.0405 -0.3207 -0.1211
-0.0222 0.5113 -0.1415
-0.0417 0.4222 0.0051
-0.0228 0.2982 -0.0099
-0.1065 0.7233 -0.1048
0.1366 -0.7297 0.0113
0.0784 -0.6913 0.0842
-0.0108 0.4591 -0.1426
-0.0987 0.6652 -0.0663
-0.0002 0.0426 -0.1260
-0.0746 0.5506 -0.0209
0.0547 -0.2791 -0.0017
0.0511 -0.4480 -0.1051
-0.0919 0.7180 -0.1400
-0.0492 0.0560 0.0059
0.0541 -0.3178 0.0172
0.0010 0.4321 -0.1374
0.0133 0.1764 -0.1400
-0.0217 0.4034 -0.1363
-0.0133 0.5472 -0.1181
0.0962 -0.6442 0.0500
0.0369 -0.6797 0.0395
-0.0220 0.6035 -0.1212
0.0636 -0.2615 -0.0768
-0.0135 0.1128 0.0263
-0.0998 0.7381 -0.0940
-0.0304 0.6708 -0.1773
0.0044 0.4047 -0.1300
-0.0400 0.4672 -0.0095
-0.0360 -0.0908 -0.0781
-0.0298 0.0900 0.0343
0.0930 -0.5764 0.0306
-0.0707 0.5254 -0.0651
0.1057 -0.6201 -0.0054
-0.0022 0.0521 0.0247
-0.0485 0.3032 0.0212
0.1204 -0.6691 0.0630
-0.0060 0.5493 -0.1438
0.0722 -0.6645 -0.0412
0.0697 -0.6809 -0.0367
0.0514 -0.6693 0.0710
0.0655 -0.6364 0.0918
0.0424 -0.3745 0.0463
-0.0287 0.4004 -0.0301
-0.0202 0.1789 0.0180
0.0058 0.3590 -0.1111
-0.0477 0.4187 -0.1242
0.0030 -0.3519 -0.0752
0.0605 -0.3066 -0.1096
0.0469 0.0702 -0.1134
-0.0036 -0.3424 -0.0274
0.0003 0.3981 -0.1396
0.0410 -0.6218 0.0496
0.0620 -0.4618 0.0364
0.0729 -0.3627 -0.0609
-0.0591 0.6586 -0.1704
0.0540 -0.6384 -0.0376
-0.0044 0.4540 -0.1416
0.0365 -0.2912 -0.1192
-0.0477 0.0471 -0.0752
0.1084 -0.6707 0.0744
0.0113 -0.4004 -0.0782
-0.0405 0.5141 -0.0064
0.0064 -0.2061 0.0443
-0.0053 0.5120 -0.1342
-0.0437 0.3767 0.0176
0.0163 -0.1616 0.0419
0.0698 -0.5117 0.0282
-0.0344 0.5603 -0.0308
-0.0119 -0.0566 0.0481
-0.0324 0.2479 0.0165
-0.0056 0.1138 -0.1272
0.0634 -0.4399 0.0305
0.0528 -0.1061 -0.1146
0.1219 -0.7442 0.0237
-0.0677 0.3011 0.0066
-0.0045 0.3833 -0.0844
-0.0221 -0.2396 0.0133
0.0903 -0.6113 -0.0832
-0.0856 0.6343 -0.1110
0.0591 -0.5820 0.0606
0.0693 -0.6223 -0.0674
0.0649 -0.4105 0.0217
0.1309 -0.7468 0.0019
-0.0856 0.6530 -0.0444
0.0418 -0.1309 -0.0445
0.0550 -0.6258 -0.0503
-0.0523 0.1311 0.0231
0.1138 -0.7301 0.0533
-0.0082 -0.0416 -0.1120
-0.0423 0.3993 0.0074
-0.0389 0.2409 -0.1186
-0.0064 0.3014 -0.1398
-0.0040 0.5937 -0.1481
0.0813 -0.4579 -0.0648
0.0032 0.1157 -0.1316
0.0774 -0.6876 0.0858
0.0659 -0.3036 -0.0466
0.0142 0.1054 -0.0609
-0.0619 0.3207 -0.0863
0.0295 -0.5055 -0.0039
0.0536 -0.5292 0.0318
-0.0782 0.7061 -0.1573
-0.0652 0.2167 -0.0489
-0.0301 0.0020 0.0290
0.0623 -0.6898 -0.0217
0.1218 -0.7352 0.0330
0.0092 0.3329 -0.1362
0.0204 -0.4530 0.0026
0.0479 -0.2673 -0.1234
0.0609 -0.3400 -0.0149
-0.0350 0.6995 -0.1071
-0.0725 0.3780 -0.0032
0.0314 -0.0823 -0.0297
-0.0400 0.5280 -0.1315
0.0727 -0.4679 0.0145
0.0631 -0.2501 -0.1086
-0.0236 0.6409 -0.1228
0.0536 -0.5585 0.0226
-0.0162 0.4364 -0.0710
-0.0115 -0.2809 -0.0197
0.0153 -0.1787 -0.1198
-0.0434 -0.0381 -0.0682
0.0910 -0.6334 -0.0939
0.0473 -0.6891 -0.0014
0.0225 -0.4986 -0.0521
0.0322 -0.5587 -0.0579
0.0431 -0.1432 -0.1180
-0.0180 0.3303 -0.1392
-0.0501 0.1265 0.0270
-0.0925 0.7183 -0.0957
-0.0322 0.6401 -0.1668
-0.0635 0.7135 -0.1596
-0.0431 -0.0256 0.0208
0.0403 -0.1269 -0.1223
0.1038 -0.6978 -0.0615
-0.0671 0.5327 -0.1043
-0.0336 0.1721 -0.1177
0.0357 -0.6396 0.0158
0.0888 -0.5386 -0.0455
0.0603 -0.3507 -0.1129
-0.0744 0.4858 -0.0353
0.0708 -0.4407 -0.0026
-0.0759 0.6421 -0.1248
-0.0160 0.2582 -0.1333
-0.0751 0.5994 -0.0241
0.0370 -0.4070 -0.1052
-0.0721 0.4458 0.0014
0.1170 -0.7361 0.0434
-0.0568 0.1697 0.0148
0.0872 -0.5674 -0.0767
0.0321 0.0350 -0.0801
-0.0826 0.7374 -0.0965
0.0503 -0.1684 -0.1091
-0.0747 0.5157 -0.0279
-0.0697 0.4255 0.0074
0.0731 -0.3822 -0.0799
-0.0754 0.3875 -0.0095
-0.0531 0.6542 -0.1720
0.1022 -0.6119 0.0240
-0.0189 0.0944 0.0316
0.0374 -0.0629 -0.0682
0.0833 -0.5078 -0.0664
-0.0706 0.5068 -0.0837
0.0090 -0.1860 -0.1149
0.0360 -0.1328 -0.0063
-0.0673 0.5901 -0.1323
-0.0724 0.5689 -0.0469
-0.0358 -0.0144 -0.0890
0.0481 -0.5296 -0.0868
-0.0197 0.6277 -0.1670
-0.0744 0.5719 -0.0747
-0.0552 0.3445 -0.1038
-0.0389 0.6187 -0.1614
-0.0703 0.4302 -0.0715
0.1088 -0.6495 -0.0137
0.0776 -0.5448 -0.0857
-0.0343 0.5981 -0.0516
-0.0767 0.6097 -0.1262
-0.0736 0.5704 -0.0976
-0.0089 -0.2255 0.0368
0.0346 0.0393 -0.1146
0.0394 -0.1904 -0.1235
0.0136 -0.0120 0.0164
-0.0061 -0.1274 -0.1066
-0.0360 0.5805 -0.0381
0.0302 -0.3445 -0.1102
0.0830 -0.5509 0.0269
0.0550 -0.0021 -0.1162
0.0494 -0.6939 0.0626
-0.0354 0.5860 -0.0425
-0.0143 0.3504 -0.0483
-0.0569 0.1920 0.0253
-0.0270 0.6859 -0.1210
0.0693 -0.3984 -0.0271
0.0073 0.2526 -0.1386
-0.0754 0.7108 -0.1580
0.0326 -0.1102 -0.1251
0.0434 0.0524 -0.1031
-0.0139 0.6480 -0.1454
0.0467 0.0973 -0.1279
0.0290 -0.0368 -0.1293
0.0017 -0.2642 0.0479
-0.0620 0.2074 0.0014
-0.0428 -0.0789 0.0089
0.0530 -0.5791 -0.0770
0.0305 -0.5183 -0.0713
0.0344 -0.6723 0.0046
0.0467 -0.1174 -0.0796
0.0723 -0.5343 -0.0947
0.0545 -0.6604 -0.0234
-0.0299 -0.1235 -0.0194
0.0123 0.1978 -0.0821
0.0769 -0.5117 -0.0855
-0.0508 0.5440 -0.0006
0.0860 -0.6899 -0.0444
-0.0686 0.3446 -0.0569
-0.1097 0.6695 -0.0989
0.0677 -0.4779 -0.0973
0.0235 -0.2572 -0.1169
-0.0547 0.2966 0.0237
-0.0669 0.2647 -0.0402
-0.0603 0.2951 0.0200
-0.0656 0.3557 0.0160
-0.0099 0.1855 -0.1312
0.0889 -0.5353 -0.0173
0.0366 -0.5752 -0.0180
0.0581 -0.2766 -0.1202
-0.0293 0.2582 0.0133
-0.0619 0.5966 -0.1385
0.0566 -0.6647 0.0823
-0.0505 0.4647 -0.1203
0.0892 -0.6872 -0.0567
-0.0302 0.0413 -0.1049
0.0704 -0.6207 -0.0714
-0.0643 0.4084 -0.0985
-0.0302 0.5195 -0.1364
0.0563 -0.2442 -0.0279
-0.0281 -0.2040 -0.0537
-0.0601 0.2418 -0.0754
0.0319 -0.3032 0.0474
-0.0462 0.6564 -0.1745
0.0639 -0.6677 -0.0346
0.0395 -0.5530 -0.0711
-0.1101 0.7208 -0.0943
0.0159 -0.3747 0.0220
-0.0239 0.6019 -0.1701
-0.0232 0.7073 -0.1529
0.0708 -0.3399 -0.1000
0.0579 -0.1916 -0.1099
-0.0360 -0.1287 -0.0638
-0.0314 0.7225 -0.1391
0.1053 -0.6719 0.0835
-0.0597 0.1080 -0.0141
0.0658 -0.6267 -0.0631
0.0521 -0.2137 -0.1204
-0.0712 0.4889 -0.0675
0.0380 -0.5283 0.0093
-0.0417 -0.0784 -0.0471
-0.0341 0.0544 0.0310
-0.0247 -0.0678 0.0299
-0.0160 0.6604 -0.1635
-0.0325 0.7207 -0.1328
0.0919 -0.6386 0.0523
-0.0135 0.5425 -0.1504
-0.0073 0.5290 -0.1448
-0.0686 0.3216 0.0122
-0.0528 0.1060 -0.0695
-0.0003 -0.3182 0.0406
0.0458 -0.7073 0.0153
0.1325 -0.7109 0.0428
-0.0220 0.5528 -0.1523
0.0211 -0.0644 0.0071
0.0793 -0.4888 -0.0134
-0.0504 0.1417 -0.0868
