ply
format ascii 1.0
comment generated by io_xyz.hpp
element vertex 836
property float x
property float y
property float z
end_header
-0.1319 0.9958 0.1722
-0.0504 0.9653 0.1712
0.0513 0.9986 0.1923
-0.0035 0.9447 0.1806
0.0330 0.9269 0.1890
0.1370 0.9546 0.2279
0.0864 0.8974 0.2106
0.1909 0.9981 -0.0223
0.3319 1.0000 0.1933
0.2349 0.9555 0.0134
0.3179 0.9738 0.0855
0.3296 0.9358 0.1520
0.3286 0.9536 0.1197
0.2841 0.9133 0.0602
0.3113 0.8735 0.1169
0.1239 0.8763 0.2265
0.3052 0.9784 0.2495
0.2232 0.9105 0.2645
0.1670 0.8520 0.2443
0.2321 0.8140 0.2738
0.3029 0.9377 0.2546
0.3015 0.8829 0.2659
0.3010 0.8313 0.2766
0.3024 0.7793 0.2944
0.3301 0.7976 0.2439
-0.4847 0.9695 0.0869
-0.4664 0.9419 -0.0358
-0.5071 0.9138 0.0555
-0.4865 0.8501 0.0087
-0.4650 0.8613 -0.0255
-0.4238 0.9878 -0.1216
-0.3821 0.9503 -0.2373
-0.4209 0.9190 -0.1384
-0.4406 0.8824 -0.0780
-0.3718 0.9930 0.1492
-0.4345 0.9358 0.1394
-0.3750 0.8913 0.1806
-0.4851 0.8796 0.1131
-0.4294 0.8342 0.1623
-0.5029 0.8149 0.0827
-0.4626 0.7732 0.1333
-0.3708 0.7962 0.1961
-0.3942 0.7334 0.1797
-0.2865 0.9475 0.1872
-0.2059 0.9784 0.1806
-0.2870 0.8454 0.2115
-0.2064 0.9171 0.1947
-0.2078 0.8721 0.2031
-0.2101 0.8224 0.2101
-0.2944 0.7592 0.2171
-0.3094 0.6795 0.2017
-0.2232 0.7423 0.2148
-0.4664 0.8215 -0.0176
-0.3989 0.8576 -0.2195
-0.4242 0.8154 -0.1160
-0.4411 0.7807 -0.0532
-0.4223 0.7433 -0.0850
-0.4045 0.7498 -0.1792
-0.3952 0.7690 -0.2195
-0.3947 0.8154 -0.2307
-0.4102 0.7133 -0.1089
-0.3938 0.7189 -0.2031
-0.3905 0.6421 -0.1689
-0.4879 0.7489 0.0340
-0.4673 0.7639 -0.0059
-0.4739 0.7105 0.0958
-0.4692 0.7119 0.0030
-0.4701 0.6458 0.0518
-0.4692 0.6650 0.0152
-0.4177 0.6660 0.1389
-0.4467 0.6215 0.0813
-0.4673 0.6182 0.0321
-0.4509 0.6805 -0.0241
-0.4228 0.6988 -0.0743
-0.3305 0.6201 0.1731
-0.4238 0.6037 0.1000
-0.3479 0.5629 0.1375
-0.4228 0.6158 -0.0729
-0.4622 0.5802 0.0054
-0.4430 0.5025 -0.0588
-0.3924 0.5390 -0.1441
-0.4303 0.5399 0.0597
-0.3694 0.4987 0.0977
-0.4430 0.4772 0.0223
-0.3910 0.4369 0.0639
-0.4238 0.4476 -0.0963
-0.3947 0.4622 -0.1398
-0.3933 0.3835 -0.1436
-0.4519 0.4134 -0.0166
-0.4453 0.4350 -0.0602
-0.4125 0.3732 0.0330
-0.4462 0.3563 -0.0569
-0.4322 0.3104 -0.0007
-0.4083 0.2790 -0.1220
-0.4373 0.2467 -0.0410
-0.4139 0.1740 -0.1014
-0.2870 0.9742 -0.3525
-0.3301 0.9710 -0.3071
-0.1211 0.8908 0.1829
-0.1384 0.8079 0.1923
-0.0569 0.8932 0.1750
-0.0532 0.7803 0.1769
-0.1431 0.7550 0.1951
0.0283 0.8370 0.1876
-0.3422 0.8768 -0.3029
-0.3797 0.7840 -0.2570
-0.3465 0.7981 -0.3029
-0.2790 0.8937 -0.3582
-0.2795 0.8121 -0.3633
-0.3502 0.7395 -0.2963
-0.3286 0.7142 -0.3207
-0.2954 0.7212 -0.3530
-0.2982 0.6861 -0.3502
-0.3797 0.6828 -0.2317
-0.3516 0.7058 -0.2912
-0.3549 0.6186 -0.2757
-0.3764 0.5812 -0.2082
-0.3010 0.6290 -0.3427
-0.2181 0.9086 -0.4083
-0.2270 0.7985 -0.4013
-0.1591 0.8070 -0.4336
-0.1525 0.8993 -0.4416
-0.2331 0.7245 -0.3975
-0.2387 0.6449 -0.3900
-0.1619 0.7742 -0.4312
-0.1661 0.7180 -0.4270
-0.1717 0.6369 -0.4200
0.1038 0.9794 -0.1099
0.0841 0.9175 -0.1441
0.0733 0.9555 -0.2073
0.0574 0.8927 -0.2434
0.0649 0.9934 -0.2715
0.0447 0.9316 -0.3057
0.0686 0.8548 -0.1801
0.0387 0.8304 -0.2785
0.0208 0.8698 -0.3385
0.0532 0.7925 -0.2171
0.1356 0.9391 -0.0555
0.1886 0.8969 -0.0063
0.1056 0.8782 -0.0860
0.1441 0.8370 -0.0344
0.1895 0.8004 0.0040
0.0850 0.8164 -0.1197
0.1145 0.7756 -0.0644
0.0691 0.7531 -0.1558
0.0930 0.7137 -0.0981
0.1694 0.7358 -0.0091
0.1281 0.6730 -0.0457
0.1675 0.6374 -0.0045
0.2401 0.8538 0.0358
0.2837 0.8121 0.0855
0.2509 0.7512 0.0565
0.2134 0.6913 0.0293
-0.0930 0.7934 -0.4383
-0.0743 0.8688 -0.4387
-0.0059 0.9096 -0.3947
-0.0429 0.8491 -0.4223
-0.0021 0.8079 -0.3713
-0.0279 0.7465 -0.4041
0.0213 0.7686 -0.3137
0.0377 0.7297 -0.2532
0.0035 0.7058 -0.3488
0.0237 0.6664 -0.2902
-0.0808 0.6852 -0.4298
-0.0967 0.6051 -0.4238
-0.0199 0.6439 -0.3825
0.0101 0.6041 -0.3268
-0.0579 0.5840 -0.4092
-0.0101 0.5418 -0.3614
0.0550 0.6908 -0.1928
0.0761 0.6510 -0.1338
0.0433 0.6275 -0.2307
0.0639 0.5882 -0.1717
0.1033 0.6111 -0.0780
0.1558 0.6004 -0.0110
0.1455 0.5643 -0.0166
0.0855 0.5493 -0.1127
0.1103 0.5090 -0.0555
0.0335 0.5643 -0.2692
0.0550 0.5254 -0.2106
0.0227 0.5048 -0.3066
0.0480 0.4743 -0.2420
0.0729 0.4861 -0.1506
0.0916 0.4467 -0.0907
0.0654 0.4219 -0.1829
0.0785 0.3839 -0.1281
-0.3539 0.5142 -0.2542
-0.3048 0.5517 -0.3315
-0.3019 0.4505 -0.3212
-0.2546 0.5423 -0.3722
-0.2513 0.4523 -0.3699
-0.1792 0.5282 -0.4106
-0.1867 0.4509 -0.4078
-0.2546 0.4059 -0.3671
-0.1947 0.3718 -0.4064
-0.3746 0.4795 -0.1844
-0.3525 0.4144 -0.2317
-0.3624 0.3099 -0.2111
-0.3174 0.3394 -0.3001
-0.3479 0.2462 -0.2560
-0.3230 0.2631 -0.3015
-0.3703 0.2022 -0.1937
-0.2588 0.3643 -0.3647
-0.2724 0.2706 -0.3614
-0.2036 0.2795 -0.4036
-0.3310 0.1829 -0.2996
-0.3844 0.1122 -0.1483
-0.3689 0.1263 -0.1839
-0.3694 0.0827 -0.1731
-0.3558 0.1464 -0.2279
-0.3324 0.0803 -0.2762
-0.3521 0.0443 -0.2045
-0.3301 -0.0223 -0.2495
-0.2762 0.1942 -0.3647
-0.2823 0.1150 -0.3577
-0.2073 0.2378 -0.4027
-0.2120 0.1933 -0.4013
-0.2143 0.1033 -0.3975
-0.2752 0.0101 -0.3427
-0.2827 -0.0911 -0.3169
-0.2232 -0.0002 -0.3797
-0.2256 -0.0874 -0.3619
-0.1192 0.5296 -0.4191
-0.1080 0.4134 -0.4177
-0.0405 0.4809 -0.3914
0.0012 0.4434 -0.3488
-0.0194 0.3774 -0.3732
0.0733 0.3558 -0.1450
-0.1216 0.3469 -0.4177
-0.1295 0.2602 -0.4149
-0.0630 0.3174 -0.3999
-0.0288 0.2916 -0.3741
-0.0410 0.2148 -0.3807
0.0330 0.3985 -0.2870
0.0148 0.3361 -0.3221
0.0513 0.3596 -0.2270
0.0677 0.3212 -0.1661
0.0363 0.2968 -0.2635
0.0550 0.2579 -0.2036
-0.0101 0.2743 -0.3544
0.0204 0.2345 -0.2996
0.0438 0.1947 -0.2420
0.0021 0.1717 -0.3347
0.0326 0.1319 -0.2799
-0.1384 0.1745 -0.4125
-0.1455 0.1033 -0.4116
-0.0930 0.1548 -0.4050
-0.0513 0.1309 -0.3863
-0.0616 0.0480 -0.3975
-0.1408 -0.0073 -0.4064
-0.1581 -0.0935 -0.3924
-0.0761 -0.0255 -0.4059
-0.0836 -0.1136 -0.4027
-0.0223 0.1103 -0.3671
0.0213 0.0686 -0.3174
0.0059 0.0059 -0.3539
-0.0208 -0.0555 -0.3858
-0.2275 -0.1206 -0.3577
-0.1605 -0.1309 -0.3872
-0.2303 0.6566 0.2045
-0.2462 0.5849 0.1853
-0.2612 0.5081 0.1628
-0.2855 0.4472 0.1403
-0.3244 0.3900 0.1080
-0.2935 0.3699 0.1267
-0.3539 0.3291 0.0775
-0.3010 0.2916 0.1136
-0.3821 0.2677 0.0461
-0.3235 0.2260 0.0930
-0.4064 0.2059 0.0138
-0.3577 0.1637 0.0611
-0.4195 0.1431 -0.0232
-0.3849 0.1024 0.0297
-0.3366 0.1455 0.0818
-0.3460 0.0649 0.0747
-0.4116 0.0747 -0.0752
-0.4003 0.0401 -0.0063
-0.4013 -0.0152 -0.0424
-0.3661 -0.0045 0.0527
-0.3563 0.0312 0.0644
-0.3853 -0.0574 0.0157
-0.1572 0.6388 0.1923
-0.0761 0.7081 0.1755
-0.0836 0.6201 0.1764
0.0129 0.7620 0.1825
0.1122 0.7915 0.2209
0.0654 0.7339 0.2017
0.1019 0.7142 0.2167
0.0077 0.6735 0.1783
-0.0063 0.5952 0.1792
0.0902 0.6271 0.2106
0.0382 0.5718 0.1947
0.0832 0.5456 0.2143
-0.2082 0.5709 0.1876
-0.1619 0.5994 0.1904
-0.1680 0.5568 0.1881
-0.1787 0.4762 0.1820
-0.0921 0.5343 0.1825
-0.1473 0.4626 0.1867
-0.0949 0.4903 0.1872
-0.0981 0.4434 0.1918
-0.1923 0.4163 0.1778
-0.2556 0.3455 0.1469
-0.1886 0.3066 0.1769
-0.1061 0.3572 0.1979
-0.1145 0.2462 0.2022
-0.0185 0.5212 0.1872
-0.0176 0.4120 0.2031
0.0644 0.4612 0.2204
0.0803 0.4936 0.2209
0.0710 0.3657 0.2368
-0.0129 0.3076 0.2171
-0.0283 0.2279 0.2218
0.0733 0.2617 0.2490
0.0152 0.2054 0.2364
0.0597 0.1825 0.2513
0.1998 0.7615 0.2649
0.1445 0.6889 0.2359
0.2068 0.6491 0.2692
0.2757 0.5760 0.2898
0.1839 0.5976 0.2602
0.1160 0.5259 0.2303
0.1801 0.4748 0.2617
0.3319 0.6688 0.1576
0.2959 0.7077 0.1080
0.2621 0.6486 0.0766
0.2860 0.6275 0.1014
0.2228 0.5887 0.0504
0.2790 0.5446 0.1108
0.3062 0.6069 0.1258
0.3090 0.4734 0.2073
0.3019 0.5062 0.1525
0.2588 0.4547 0.2734
0.1445 0.4678 -0.0040
0.1272 0.4238 0.2504
0.1178 0.4074 -0.0340
0.1333 0.3891 -0.0110
0.0996 0.3450 -0.0691
0.1136 0.3244 -0.0410
0.1825 0.5287 0.0246
0.2265 0.4870 0.0738
0.1876 0.4270 0.0471
0.2860 0.4790 0.1398
0.2663 0.4458 0.1244
0.2973 0.4134 0.1839
0.2293 0.3853 0.0972
0.2743 0.3413 0.1502
0.1544 0.3661 0.0185
0.1291 0.3043 -0.0138
0.1951 0.3249 0.0686
0.2420 0.2823 0.1169
0.1661 0.2635 0.0382
0.2115 0.2214 0.0869
0.1703 0.3985 0.2692
0.1366 0.3212 0.2710
0.1689 0.3479 0.2776
0.1670 0.3034 0.2855
0.2143 0.3774 0.2818
0.2551 0.3788 0.2846
0.2157 0.2757 0.3062
0.2565 0.2996 0.3076
0.2579 0.2509 0.3244
0.1595 0.2181 0.2959
0.0977 0.1595 0.2696
0.1558 0.1038 0.2987
0.2200 0.1740 0.3291
0.2579 0.1792 0.3427
0.2457 0.0686 0.3418
0.3343 0.2631 0.2565
0.3085 0.3029 0.1993
0.2612 0.2663 0.1347
0.2551 0.1862 0.1249
0.2921 0.2401 0.1633
0.3380 0.1984 0.2120
0.3169 0.1361 0.1783
0.4008 0.1113 0.3174
0.3558 0.1047 0.2115
0.4055 0.0096 0.3544
-0.2139 0.2429 0.1647
-0.2663 0.1815 0.1333
-0.2111 0.1445 0.1666
-0.1338 0.1890 0.1984
-0.3062 0.1216 0.1071
-0.2354 0.0785 0.1567
-0.2916 0.0180 0.1258
-0.1249 0.0892 0.2040
-0.2401 -0.0340 0.1605
-0.1731 0.0330 0.1872
-0.1403 0.0138 0.2017
-0.1487 -0.0710 0.2036
-0.0391 0.1487 0.2256
-0.0405 0.0363 0.2298
0.0494 0.1014 0.2523
0.0560 0.0049 0.2579
-0.0897 -0.0129 0.2200
-0.0513 -0.0340 0.2335
-0.0607 -0.1174 0.2429
-0.0016 -0.0597 0.2504
0.0387 -0.0307 0.2560
0.0358 -0.0780 0.2612
0.0269 -0.1637 0.2734
-0.3867 0.0110 -0.1225
-0.3703 0.0260 -0.1605
-0.3291 -0.0419 0.0986
-0.3563 -0.1033 0.0677
-0.3718 -0.0237 -0.1506
-0.3896 -0.0902 -0.0967
-0.3732 -0.0700 -0.1431
-0.3755 -0.1553 -0.1352
-0.3577 -0.0565 -0.1773
-0.3352 -0.1234 -0.2298
-0.3933 -0.1263 -0.0274
-0.3750 -0.1661 0.0326
-0.3919 -0.1914 -0.0705
-0.3858 -0.2289 -0.0059
-0.2743 -0.0846 0.1436
-0.2509 -0.1010 0.1586
-0.3113 -0.1455 0.1164
-0.2612 -0.1956 0.1544
-0.2050 -0.1291 0.1825
-0.1516 -0.1825 0.2143
-0.1886 -0.2326 0.2003
-0.1614 -0.2513 0.2186
-0.3404 -0.2064 0.0860
-0.2916 -0.2485 0.1333
-0.3610 -0.2682 0.0518
-0.3221 -0.3094 0.1033
-0.2720 -0.2645 0.1497
-0.2841 -0.3633 0.1422
-0.2345 -0.2916 0.1769
-0.1698 -0.3352 0.2232
-0.2186 -0.3952 0.1951
-0.0611 -0.2186 0.2607
-0.1253 -0.2766 0.2415
0.0930 0.3146 -0.0869
0.0874 0.2813 -0.1071
0.1127 0.2420 -0.0494
0.0761 0.2186 -0.1450
0.1000 0.1792 -0.0874
0.1441 0.2017 0.0049
0.1834 0.1600 0.0560
0.1267 0.1394 -0.0302
0.1591 0.0986 0.0237
0.0654 0.1553 -0.1829
0.0869 0.1160 -0.1244
0.0560 0.0925 -0.2218
0.0757 0.0527 -0.1623
0.1108 0.0766 -0.0668
0.1370 0.0368 -0.0101
0.0958 0.0138 -0.1033
0.1178 -0.0255 -0.0452
0.1319 0.0494 0.2898
0.1352 -0.0579 0.2902
0.1989 0.0105 0.3202
0.0883 -0.1066 0.2804
0.2321 0.1183 0.1042
0.1993 0.0574 0.0743
0.2195 0.0396 0.0939
0.2846 0.0752 0.1487
0.2495 0.0148 0.1211
0.3361 0.0246 0.1844
0.3174 -0.0335 0.1675
0.1708 -0.0040 0.0433
0.2115 -0.0419 0.0869
0.1473 -0.0663 0.0101
0.1923 -0.1033 0.0672
0.2724 -0.0892 0.1361
0.3099 -0.1131 0.1567
0.2378 -0.1497 0.1080
0.2991 -0.1961 0.1455
0.0494 0.0288 -0.2617
0.0682 -0.0105 -0.2022
0.0415 -0.0349 -0.3010
0.0607 -0.0743 -0.2415
0.0836 -0.0494 -0.1408
0.1019 -0.0883 -0.0808
0.0738 -0.1122 -0.1797
0.0888 -0.1511 -0.1183
0.0246 -0.0981 -0.3361
0.0546 -0.1103 -0.2635
-0.0105 -0.1581 -0.3652
0.0241 -0.1993 -0.3127
0.0476 -0.1370 -0.2785
0.0616 -0.1755 -0.2171
0.0546 -0.1553 -0.2504
0.0761 -0.2139 -0.1558
0.0532 -0.2129 -0.2392
0.0625 -0.2766 -0.2008
0.0466 -0.2382 -0.2537
0.1277 -0.1281 -0.0241
0.1684 -0.1745 0.0363
0.1113 -0.1904 -0.0597
0.1483 -0.2382 0.0035
0.2078 -0.2111 0.0775
0.2738 -0.2602 0.1281
0.1825 -0.2724 0.0452
0.2340 -0.3151 0.0916
0.0963 -0.2532 -0.0963
0.1277 -0.2977 -0.0349
0.0850 -0.3216 -0.1347
0.1174 -0.3235 -0.0583
0.1103 -0.3563 -0.0775
0.1614 -0.3343 0.0115
0.2097 -0.3769 0.0588
0.1441 -0.3970 -0.0241
0.1895 -0.4387 0.0251
-0.1680 -0.4317 0.2307
-0.0625 -0.3258 0.2757
0.0269 -0.2654 0.2879
0.0349 -0.3708 0.3015
-0.1103 -0.3792 0.2602
-0.0719 -0.4031 0.2804
-0.0818 -0.4823 0.2823
-0.0335 -0.4247 0.2954
0.0162 -0.4495 0.3104
0.0054 -0.5296 0.3188
0.2270 -0.0963 0.3286
0.1239 -0.1244 0.2921
0.1155 -0.2101 0.2973
0.1736 -0.1525 0.3127
0.2134 -0.1736 0.3272
0.2036 -0.2584 0.3235
0.3127 -0.1464 0.3577
0.4041 -0.0794 0.3736
0.3956 -0.1764 0.3797
0.2626 -0.1989 0.3427
0.3427 -0.3151 0.3455
0.2865 -0.2940 0.3408
0.1234 -0.3076 0.3062
0.1066 -0.3371 0.3052
0.1033 -0.3914 0.3118
0.1937 -0.3399 0.3221
0.1811 -0.4195 0.3249
0.0836 -0.4790 0.3235
0.0888 -0.5704 0.3408
0.1848 -0.5231 0.3380
0.2677 -0.3385 0.1141
0.2612 -0.3689 0.3333
0.2804 -0.3371 0.3376
0.2635 -0.4743 0.3315
0.3516 -0.3980 0.3310
0.3347 -0.4683 0.3258
0.2593 -0.4130 0.0953
0.2368 -0.4767 0.0644
0.1820 -0.6247 0.3633
0.2598 -0.5484 0.3413
0.2588 -0.6018 0.3535
0.2607 -0.6524 0.3708
0.3305 -0.5610 0.3212
0.3282 -0.6055 0.3272
0.3286 -0.6599 0.3432
-0.3432 -0.2317 -0.2120
-0.3816 -0.2556 -0.1150
-0.3896 -0.2926 -0.0466
-0.3839 -0.3586 -0.0935
-0.3591 -0.3235 -0.1698
-0.3446 -0.3085 -0.2050
-0.3450 -0.3539 -0.1951
-0.3619 -0.4242 -0.1436
-0.3455 -0.4088 -0.1820
-0.3450 -0.4537 -0.1689
-0.2963 -0.1984 -0.2973
-0.3254 -0.2902 -0.2513
-0.2982 -0.2748 -0.2949
-0.2307 -0.1797 -0.3511
-0.2378 -0.2584 -0.3474
-0.3010 -0.3315 -0.2879
-0.2621 -0.3638 -0.3277
-0.3258 -0.3910 -0.2265
-0.3019 -0.3708 -0.2790
-0.3005 -0.4294 -0.2607
-0.3165 -0.4936 -0.2054
-0.2982 -0.4790 -0.2434
-0.2766 -0.4608 -0.2898
-0.2495 -0.4500 -0.3268
-0.3755 -0.3310 0.0148
-0.3465 -0.3713 0.0705
-0.3844 -0.3942 -0.0241
-0.3661 -0.4336 0.0358
-0.3015 -0.4177 0.1277
-0.3347 -0.4739 0.0902
-0.3094 -0.4987 0.1197
-0.2565 -0.4556 0.1684
-0.2898 -0.5160 0.1394
-0.3839 -0.4594 -0.0677
-0.3788 -0.4964 -0.0016
-0.3783 -0.5643 -0.0316
-0.3596 -0.5259 -0.1197
-0.3441 -0.5132 -0.1525
-0.3558 -0.5362 0.0565
-0.3221 -0.5737 0.1042
-0.3680 -0.6069 0.0138
-0.3446 -0.6332 0.0668
-0.2973 -0.5193 -0.2298
-0.2499 -0.4893 -0.3179
-0.2682 -0.5629 -0.2682
-0.2499 -0.5512 -0.3005
-0.2504 -0.5896 -0.2926
-0.3436 -0.5493 -0.1413
-0.3427 -0.6332 -0.1099
-0.3624 -0.6641 -0.0265
-0.3488 -0.7025 0.0358
-0.3357 -0.7316 -0.0789
-0.3427 -0.7676 -0.0096
-0.3277 -0.8370 -0.0387
-0.2973 -0.6022 -0.1979
-0.2973 -0.7044 -0.1731
-0.2701 -0.6641 -0.2429
-0.2518 -0.6500 -0.2804
-0.2546 -0.7025 -0.2734
-0.2795 -0.7648 -0.2143
-0.2565 -0.7423 -0.2682
-0.2584 -0.8299 -0.2617
-0.2991 -0.8070 -0.1502
-0.2963 -0.9049 -0.1225
-0.2823 -0.8655 -0.1881
-0.1633 -0.1853 -0.3811
-0.1712 -0.2668 -0.3778
-0.0771 -0.2186 -0.3877
-0.0977 -0.2912 -0.3886
-0.1811 -0.3563 -0.3788
-0.1862 -0.4078 -0.3783
-0.0986 -0.3821 -0.3947
-0.1890 -0.4430 -0.3760
-0.1192 -0.4542 -0.3985
-0.0049 -0.2598 -0.3427
-0.0382 -0.3207 -0.3713
0.0119 -0.2762 -0.3230
-0.0068 -0.3427 -0.3502
0.0316 -0.3010 -0.2898
0.0574 -0.3408 -0.2331
0.0180 -0.3638 -0.3272
0.0518 -0.4045 -0.2738
-0.0134 -0.4191 -0.3675
-0.0387 -0.4861 -0.3886
0.0429 -0.4678 -0.3127
0.0255 -0.5301 -0.3479
0.0785 -0.3802 -0.1745
0.1019 -0.4195 -0.1169
0.0766 -0.4444 -0.2162
0.1000 -0.4837 -0.1586
0.1323 -0.4598 -0.0621
0.1736 -0.5011 -0.0110
0.1277 -0.5240 -0.1024
0.1726 -0.5727 -0.0415
0.0761 -0.5085 -0.2588
0.1042 -0.5591 -0.2101
0.0714 -0.5671 -0.2982
0.1314 -0.5915 -0.1464
0.1628 -0.5966 -0.0710
-0.1942 -0.5338 -0.3666
-0.2054 -0.6411 -0.3465
-0.1220 -0.5423 -0.3980
-0.1356 -0.6271 -0.3928
-0.1398 -0.6791 -0.3900
-0.0499 -0.5671 -0.3952
-0.0597 -0.6514 -0.3999
-0.0045 -0.5910 -0.3783
-0.2415 -0.7316 -0.2968
-0.2054 -0.7180 -0.3441
-0.2106 -0.7934 -0.3366
-0.1422 -0.7156 -0.3872
-0.1487 -0.8056 -0.3778
0.0508 -0.6308 -0.3408
0.0283 -0.6959 -0.3671
-0.0696 -0.7330 -0.3999
-0.0733 -0.8079 -0.3905
-0.0218 -0.7554 -0.3891
0.0185 -0.7798 -0.3685
0.0171 -0.8309 -0.3605
-0.0157 -0.8571 -0.3671
0.0162 -0.8777 -0.3488
-0.1904 -0.4968 0.2181
-0.2359 -0.5587 0.1844
-0.2003 -0.5859 0.2120
-0.2710 -0.6191 0.1562
-0.2115 -0.6608 0.2073
-0.3005 -0.6805 0.1258
-0.2546 -0.7227 0.1740
-0.2120 -0.7578 0.2129
-0.1375 -0.5423 0.2532
-0.1787 -0.6018 0.2279
-0.0864 -0.5952 0.2874
-0.1085 -0.6528 0.2781
0.0049 -0.6318 0.3310
-0.0536 -0.6899 0.3108
-0.1623 -0.7053 0.2462
-0.1047 -0.7494 0.2884
-0.1497 -0.8074 0.2659
0.0026 -0.7419 0.3432
-0.1085 -0.8609 0.3015
-0.0396 -0.7925 0.3301
-0.0073 -0.8131 0.3479
-0.0162 -0.8955 0.3539
-0.3207 -0.7428 0.0916
-0.2837 -0.7836 0.1436
-0.3301 -0.8060 0.0527
-0.3048 -0.8459 0.1099
-0.2317 -0.8243 0.2017
-0.2710 -0.8866 0.1633
-0.2396 -0.9386 0.2050
-0.3263 -0.8824 0.0007
-0.3169 -0.9086 0.0724
-0.3183 -0.9733 0.0283
-0.2935 -0.9480 0.1300
-0.2556 -0.9934 0.1895
-0.1928 -0.8674 0.2410
-0.3146 -0.9363 -0.0391
-0.1408 -0.9100 0.2870
-0.1183 -0.9269 0.3043
-0.1820 -0.9700 0.2612
-0.0799 -0.9536 0.3291
0.2157 -0.5371 0.0283
0.0930 -0.6777 0.3624
0.0921 -0.7845 0.3792
0.1806 -0.7245 0.3914
0.1745 -0.8327 0.4041
0.0344 -0.8370 0.3671
0.0822 -0.8623 0.3825
0.0714 -0.9414 0.3844
0.1286 -0.8843 0.3947
0.1670 -0.9021 0.4031
0.1595 -0.9925 0.4031
0.2626 -0.6922 0.3844
0.3305 -0.6969 0.3577
0.2799 -0.7737 0.4120
0.2607 -0.8571 0.4238
0.3404 -0.7779 0.4013
0.3038 -0.8763 0.4327
0.3436 -0.8590 0.4298
0.2476 -0.9325 0.4228
-0.2556 -0.9353 -0.2275
-0.2677 -0.9686 -0.1694
-0.2513 -0.9930 -0.1909
-0.2120 -0.8979 -0.3137
-0.1492 -0.9072 -0.3530
-0.2078 -0.9733 -0.2846
-0.0743 -0.8918 -0.3699
-0.0733 -0.9302 -0.3586
0.0162 -0.9330 -0.3357
0.3427 -0.8918 0.4364
0.3380 -0.9817 0.4416
0.4102 0.0518 0.2743
0.3624 -0.1038 0.1876
0.3853 -0.2406 0.1839
0.4387 -0.3408 0.3329
0.4804 -0.2837 0.2040
0.5071 -0.3488 0.3062
0.3361 -0.2987 0.1595
0.3760 -0.3207 0.1759
0.2987 -0.3591 0.1323
0.3624 -0.4130 0.1628
0.4678 -0.3076 0.1998
0.4270 -0.3455 0.1890
0.4238 -0.4130 0.3141
0.4158 -0.4523 0.3062
0.4622 -0.3638 0.2008
0.4903 -0.4186 0.2827
0.4575 -0.4378 0.2087
0.4472 -0.4491 0.2054
0.4378 -0.4851 0.2766
0.3319 -0.4640 0.1431
0.2968 -0.5245 0.1155
0.3521 -0.4800 0.1595
0.3474 -0.5685 0.1731
0.3853 -0.5067 0.1886
0.3956 -0.5498 0.2612
0.3675 -0.6107 0.2289
0.4092 -0.4875 0.2987
0.3628 -0.6425 0.2907
0.1075 -0.6135 -0.2471
0.1614 -0.6290 -0.0916
0.1366 -0.6533 -0.1918
0.1628 -0.6936 -0.1352
0.1024 -0.6772 -0.2874
0.0841 -0.7395 -0.3230
0.1384 -0.7175 -0.2349
0.1633 -0.7578 -0.1778
0.1258 -0.7807 -0.2729
0.1525 -0.8210 -0.2162
0.0466 -0.7995 -0.3502
0.0953 -0.8416 -0.3029
0.1281 -0.8824 -0.2490
0.0485 -0.9011 -0.3263
0.0925 -0.9428 -0.2771
0.2710 -0.5863 0.0832
0.2087 -0.6069 -0.0012
0.2504 -0.6482 0.0490
0.3104 -0.6271 0.1347
0.3568 -0.6285 0.2097
0.3441 -0.6716 0.1937
0.2865 -0.6889 0.1014
0.3230 -0.7330 0.1595
0.1965 -0.6697 -0.0391
0.2312 -0.7100 0.0143
0.1872 -0.7325 -0.0775
0.2111 -0.7723 -0.0199
0.2626 -0.7508 0.0686
0.3019 -0.7976 0.1300
0.2378 -0.8121 0.0363
0.2724 -0.8534 0.0897
0.3694 -0.6974 0.2513
0.3910 -0.7531 0.3202
0.3572 -0.7704 0.2073
0.4013 -0.8126 0.2565
0.3774 -0.7831 0.3769
0.4008 -0.7985 0.3586
0.4116 -0.8646 0.4022
0.4406 -0.8538 0.3076
0.4467 -0.8913 0.3727
0.2898 -0.8702 0.1103
0.3371 -0.8327 0.1731
0.3844 -0.8749 0.2209
0.3151 -0.8951 0.1394
0.3610 -0.9368 0.1876
0.4308 -0.9180 0.2715
0.4603 -0.9297 0.3427
0.4097 -0.9836 0.2434
0.4594 -0.9574 0.3249
0.1783 -0.7962 -0.1169
0.1947 -0.8351 -0.0555
0.1666 -0.8595 -0.1544
0.1801 -0.8979 -0.0930
0.2181 -0.8744 0.0021
0.2598 -0.9227 0.0639
0.2031 -0.9372 -0.0344
0.2382 -0.9850 0.0185
0.1487 -0.9218 -0.1895
0.1666 -0.9606 -0.1295
0.1909 -1.0000 -0.0724
0.2954 -0.9569 0.1047
0.3399 -0.9991 0.1539
0.4134 -0.9044 0.4163
0.4125 -0.9635 0.4289
0.4491 -0.9930 0.3966
0.4622 -0.9766 0.3586
