-0.0198 -0.5177 -0.0210
-0.0581 0.5202 -0.0654
-0.0545 -0.0401 -0.0457
-0.0668 0.2953 -0.0664
-0.0154 -0.3892 -0.0273
-0.0526 0.0258 -0.0452
-0.0620 0.1441 -0.0605
-0.0319 -0.0936 -0.0537
-0.0468 -0.2226 -0.0439
-0.0173 -0.6423 -0.0083
0.0030 -0.5656 0.0045
0.0208 -0.6688 -0.0063
-0.0771 0.5834 -0.0709
-0.0465 0.1171 -0.0479
-0.0464 -0.2003 -0.0465
-0.0268 -0.2936 -0.0428
-0.0252 -0.2482 -0.0437
-0.0411 -0.3891 -0.0202
-0.0387 -0.6460 0.0068
0.0120 -0.6155 -0.0082
-0.0704 0.5746 -0.0868
-0.0388 0.0194 -0.0455
-0.0369 -0.6544 0.0464
-0.0398 0.1618 -0.0562
-0.0368 -0.5108 -0.0096
-0.0730 0.7080 -0.0793
-0.0376 -0.6228 0.0061
-0.0392 -0.4281 -0.0171
-0.0826 0.5413 -0.0833
-0.0078 -0.5507 -0.0155
-0.0258 -0.2124 -0.0372
-0.0882 0.6052 -0.0942
-0.0241 -0.2856 -0.0420
-0.0612 0.5503 -0.0669
-0.0569 0.2643 -0.0712
-0.0220 -0.2837 -0.0309
-0.0752 0.4857 -0.0812
-0.0432 -0.0825 -0.0571
-0.0387 -0.2334 -0.0473
-0.0191 -0.3187 -0.0336
-0.0329 -0.0513 -0.0549
-0.0224 -0.6117 -0.0086
-0.0557 0.3743 -0.0579
-0.0123 -0.4328 -0.0236
-0.0514 -0.0661 -0.0549
-0.0543 0.0442 -0.0472
0.0102 -0.6252 0.0047
-0.0489 -0.6873 0.0209
-0.0509 0.0524 -0.0627
-0.0040 -0.5269 -0.0083
-0.0699 0.4870 -0.0825
-0.0599 0.4448 -0.0770
-0.0077 -0.4994 -0.0176
-0.0826 0.5938 -0.0744
-0.0542 0.0704 -0.0477
-0.0249 -0.2071 -0.0421
0.0094 -0.5815 0.0044
-0.0295 -0.1292 -0.0506
-0.0271 -0.3554 -0.0380
-0.0299 -0.1985 -0.0342
-0.0944 0.7080 -0.1087
-0.0831 0.6829 -0.1002
-0.0153 -0.6590 -0.0079
-0.1024 0.7161 -0.0525
-0.0061 -0.5694 -0.0126
-0.0294 -0.4084 -0.0315
-0.0640 0.2716 -0.0625
-0.1039 0.6981 -0.1014
-0.0362 -0.0238 -0.0448
0.0071 -0.6018 0.0147
-0.0256 -0.3907 -0.0149
-0.0624 0.5070 -0.0794
-0.1083 0.7067 -0.0712
-0.0611 0.5402 -0.0754
-0.0462 -0.2579 -0.0392
-0.0505 0.2636 -0.0700
-0.0487 0.3775 -0.0624
-0.0747 0.6032 -0.0713
-0.0566 -0.0118 -0.0492
-0.0286 -0.5305 0.0033
-0.0489 0.2496 -0.0693
-0.0557 0.0048 -0.0486
-0.0337 -0.1098 -0.0396
-0.0448 0.0016 -0.0614
-0.0567 0.1659 -0.0665
-0.0298 -0.1568 -0.0509
-0.0910 0.6520 -0.0955
-0.0350 -0.5459 -0.0053
-0.0089 -0.5629 0.0101
-0.0916 0.7071 -0.1054
-0.0457 0.3035 -0.0629
-0.0065 -0.6652 -0.0134
-0.0471 0.2961 -0.0670
-0.0532 -0.1001 -0.0502
-0.0327 0.0014 -0.0527
-0.0463 -0.2886 -0.0319
-0.1002 0.6760 -0.0997
-0.1100 0.7288 -0.0862
-0.0166 -0.3901 -0.0302
-0.0508 -0.6350 0.0244
-0.0645 0.4375 -0.0790
-0.0443 -0.1702 -0.0507
-0.0234 -0.4769 -0.0257
-0.0429 -0.1788 -0.0318
-0.0213 -0.6103 0.0278
-0.0553 0.1004 -0.0492
-0.1034 0.6816 -0.0962
-0.0379 0.1190 -0.0546
-0.0065 -0.5054 -0.0128
-0.0545 0.3769 -0.0733
-0.0867 0.5723 -0.0809
0.0035 -0.6117 0.0191
-0.0616 0.1450 -0.0580
-0.0697 0.3516 -0.0696
-0.0313 -0.6581 0.0012
-0.0361 -0.3161 -0.0217
-0.0377 0.0760 -0.0594
-0.0446 -0.2022 -0.0315
0.0173 -0.6069 -0.0009
-0.0205 -0.3050 -0.0301
-0.0171 -0.4546 -0.0083
-0.0171 -0.4728 -0.0260
0.0009 -0.6831 -0.0206
-0.0678 0.3511 -0.0670
-0.0542 -0.0926 -0.0477
-0.0388 -0.3846 -0.0296
-0.0102 -0.6421 -0.0131
-0.0733 0.5701 -0.0673
-0.0617 0.5326 -0.0620
-0.0562 0.4818 -0.0621
-0.0833 0.5386 -0.0799
-0.0844 0.6015 -0.0935
-0.0702 0.6165 -0.0738
-0.0552 -0.0654 -0.0501
-0.0469 -0.1590 -0.0349
-0.0266 -0.5366 0.0048
-0.0604 0.0974 -0.0565
-0.0790 0.5444 -0.0858
-0.0256 -0.5423 -0.0160
-0.0170 -0.5542 -0.0169
-0.0852 0.5757 -0.0884
-0.0532 0.0921 -0.0479
-0.0605 0.5489 -0.0729
-0.0676 0.5721 -0.0669
-0.0159 -0.5326 0.0044
-0.0386 -0.3532 -0.0345
-0.0668 0.4551 -0.0638
-0.1010 0.6718 -0.0855
-0.0992 0.6618 -0.0900
-0.0604 0.5126 -0.0762
-0.0372 -0.0196 -0.0593
-0.1119 0.7300 -0.0733
-0.0402 0.0541 -0.0466
-0.0894 0.5881 -0.0825
-0.0933 0.6170 -0.0857
-0.0248 -0.3001 -0.0417
-0.0669 0.5780 -0.0681
-0.0309 -0.4899 -0.0024
-0.0529 0.3831 -0.0710
-0.0948 0.7014 -0.0626
-0.0296 -0.1622 -0.0381
-0.0594 0.4368 -0.0606
0.0159 -0.6374 -0.0046
-0.0873 0.5732 -0.0844
-0.0616 0.3317 -0.0734
-0.0800 0.4971 -0.0796
-0.0501 -0.1724 -0.0457
-0.0657 0.4809 -0.0812
-0.0421 0.1966 -0.0631
-0.0546 0.3309 -0.0728
-0.0278 -0.5549 -0.0131
-0.0256 -0.5247 -0.0185
-0.1046 0.7247 -0.0984
-0.0296 -0.1203 -0.0440
-0.0385 -0.0120 -0.0602
-0.0567 -0.0257 -0.0523
-0.0415 -0.1390 -0.0348
-0.0445 -0.0350 -0.0405
-0.0609 0.3430 -0.0741
-0.0441 -0.3018 -0.0258
-0.0707 0.5216 -0.0646
-0.0915 0.5996 -0.0848
-0.0434 0.1506 -0.0650
-0.0215 -0.4588 -0.0066
0.0070 -0.6214 0.0159
-0.0131 -0.4955 -0.0037
-0.0876 0.7004 -0.0760
-0.0414 0.1948 -0.0559
-0.0442 0.2717 -0.0598
-0.0025 -0.6426 0.0277
-0.0672 0.7363 -0.0905
-0.0380 -0.4251 -0.0140
-0.0381 -0.4593 -0.0156
-0.0606 0.2264 -0.0579
-0.0111 -0.6823 -0.0145
-0.0664 0.5481 -0.0633
-0.0542 -0.0198 -0.0458
-0.0366 -0.0482 -0.0428
-0.0317 -0.5736 -0.0059
-0.0713 0.4844 -0.0817
-0.0357 -0.4515 -0.0218
-0.0455 0.2867 -0.0553
-0.0692 0.3929 -0.0674
-0.0042 -0.5546 0.0060
-0.0507 0.3939 -0.0605
-0.0415 0.2134 -0.0589
-0.0237 -0.3614 -0.0370
-0.0246 -0.4824 -0.0242
-0.0276 -0.6288 -0.0050
-0.0738 0.5880 -0.0698
-0.0777 0.5460 -0.0716
-0.0359 -0.5341 -0.0038
-0.0385 0.0278 -0.0462
-0.0223 -0.6352 0.0371
-0.0582 0.2947 -0.0724
-0.0257 -0.4178 -0.0315
-0.0365 -0.1447 -0.0537
-0.0246 -0.3792 -0.0170
-0.0642 0.3060 -0.0623
-0.0678 0.5169 -0.0626
-0.0339 -0.4252 -0.0273
-0.0580 0.0129 -0.0550
-0.0349 -0.1815 -0.0515
-0.0946 0.6381 -0.0929
-0.0065 -0.5245 -0.0164
-0.0736 0.5939 -0.0703
0.0253 -0.6734 0.0103
-0.0800 0.7190 -0.1069
-0.0592 -0.6572 0.0438
-0.0200 -0.3793 -0.0344
-0.0969 0.6464 -0.0859
-0.0715 0.5726 -0.0670
-0.0513 0.4171 -0.0676
-0.0228 -0.4398 -0.0090
-0.0652 0.5105 -0.0819
-0.0332 -0.3912 -0.0325
-0.0374 -0.2940 -0.0234
-0.0343 -0.1522 -0.0357
-0.0100 -0.4576 -0.0189
-0.0422 -0.1543 -0.0527
-0.0597 0.5382 -0.0654
-0.0330 -0.5481 -0.0100
-0.0482 -0.2401 -0.0348
-0.0408 -0.0650 -0.0582
-0.0598 0.1364 -0.0634
-0.0880 0.6636 -0.0991
-0.0456 0.3045 -0.0587
-0.0372 -0.4721 -0.0179
-0.0604 0.1018 -0.0598
-0.0155 -0.4008 -0.0178
-0.0186 -0.5588 0.0108
-0.0408 0.1487 -0.0624
-0.0661 0.4216 -0.0779
0.0147 -0.6668 0.0401
-0.0755 0.6133 -0.0913
-0.0780 0.5097 -0.0825
-0.0605 0.2286 -0.0687
-0.0086 -0.4791 -0.0183
-0.0314 -0.2573 -0.0463
-0.0483 0.3589 -0.0587
-0.0760 0.5852 -0.0900
-0.0346 -0.4979 -0.0166
-0.0348 -0.3129 -0.0410
-0.0091 -0.5326 -0.0178
0.0169 -0.6903 0.0113
-0.0565 0.4728 -0.0623
-0.0567 0.4838 -0.0652
-0.0139 -0.5255 0.0027
-0.0423 0.2321 -0.0612
-0.0096 -0.4690 -0.0144
0.0095 -0.6511 0.0257
-0.0588 0.3225 -0.0572
-0.0612 0.1795 -0.0572
-0.0549 0.1776 -0.0515
-0.0760 0.5685 -0.0689
-0.0317 -0.0330 -0.0494
-0.0087 -0.5028 -0.0070
-0.0676 0.5705 -0.0840
-0.0024 -0.5677 -0.0100
-0.0665 0.3103 -0.0663
-0.0490 -0.2100 -0.0416
-0.0453 -0.2925 -0.0348
-0.0845 0.6584 -0.0982
-0.0930 0.6323 -0.0808
-0.0522 -0.1349 -0.0433
-0.0557 -0.0209 -0.0551
-0.0111 -0.5184 -0.0198
-0.0212 -0.3164 -0.0379
-0.0388 0.0583 -0.0483
-0.0430 -0.3069 -0.0368
-0.0491 -0.1313 -0.0379
-0.0340 -0.0122 -0.0559
-0.0492 -0.2121 -0.0383
-0.0563 0.0693 -0.0614
-0.0272 -0.4383 -0.0283
-0.0164 -0.5760 -0.0139
-0.0483 0.2886 -0.0538
-0.0607 0.4734 -0.0781
-0.0117 -0.4636 -0.0114
-0.0581 0.1756 -0.0665
-0.0636 0.2995 -0.0708
-0.0455 0.0722 -0.0643
-0.0332 -0.5493 -0.0038
-0.0613 0.5618 -0.0719
-0.0635 0.2246 -0.0619
-0.0235 -0.2380 -0.0377
-0.0678 0.6936 -0.0961
-0.0371 -0.5206 -0.0072
-0.0500 -0.0409 -0.0574
-0.0119 -0.4354 -0.0157
-0.0611 0.1193 -0.0599
-0.0353 -0.5139 -0.0041
-0.0416 0.0843 -0.0476
-0.0217 -0.5191 0.0032
-0.0514 0.2766 -0.0537
-0.0836 0.5669 -0.0767
-0.0746 0.4327 -0.0749
-0.0793 0.5084 -0.0770
0.0089 -0.6012 0.0127
-0.0655 0.3818 -0.0748
-0.0435 -0.6825 0.0436
0.0038 -0.6562 -0.0163
-0.0544 0.0088 -0.0461
-0.0602 0.7155 -0.0944
-0.0490 -0.1418 -0.0502
-0.0444 -0.3240 -0.0274
-0.0688 0.6148 -0.0762
-0.0318 -0.4664 -0.0233
-0.0398 -0.1206 -0.0362
-0.0715 0.6335 -0.0763
-0.0908 0.6060 -0.0811
-0.0379 -0.3157 -0.0395
-0.0342 -0.5295 -0.0011
-0.0485 -0.0070 -0.0421
-0.0418 0.1029 -0.0639
-0.0764 0.4663 -0.0783
-0.0564 0.4831 -0.0620
-0.0429 0.2445 -0.0595
-0.0322 -0.5404 -0.0120
-0.0339 -0.2831 -0.0244
-0.0588 0.0540 -0.0528
-0.0273 -0.4975 -0.0211
-0.0800 0.6758 -0.0973
-0.0135 -0.4871 -0.0238
-0.0078 -0.5559 0.0076
-0.0437 0.1845 -0.0650
-0.0593 0.3089 -0.0574
-0.0690 0.5583 -0.0854
-0.1134 0.7279 -0.0670
-0.0450 0.2803 -0.0566
-0.0778 0.4714 -0.0767
-0.0851 0.6388 -0.0974
-0.0253 -0.6732 -0.0036
-0.0138 -0.4033 -0.0211
-0.0134 -0.5482 -0.0178
-0.0306 -0.5699 -0.0081
-0.0434 0.2321 -0.0557
-0.0290 -0.3894 -0.0151
-0.0423 -0.2669 -0.0425
-0.0303 -0.4507 -0.0259
-0.0990 0.6585 -0.0939
0.0118 -0.6669 0.0426
-0.0573 0.5075 -0.0704
-0.0187 -0.4551 -0.0076
0.0098 -0.6786 0.0376
-0.0210 -0.4043 -0.0330
-0.0314 -0.1185 -0.0527
-0.0481 0.2761 -0.0687
-0.0655 0.7192 -0.0892
-0.0519 0.0059 -0.0596
-0.0622 0.2215 -0.0674
-0.0704 0.3868 -0.0698
-0.0720 0.4658 -0.0804
-0.0756 0.5055 -0.0715
-0.0189 -0.4800 -0.0253
-0.0189 -0.3438 -0.0246
-0.0842 0.6882 -0.0745
-0.0717 0.4261 -0.0762
-0.0336 -0.5578 -0.0066
-0.0877 0.6995 -0.1022
-0.0498 -0.1605 -0.0379
-0.0956 0.6611 -0.0760
0.0023 -0.6387 -0.0180
-0.0205 -0.5737 -0.0134
-0.0560 0.2826 -0.0721
-0.0365 -0.6044 0.0178
-0.0639 0.2049 -0.0613
-0.0651 0.2641 -0.0680
-0.0564 0.1271 -0.0511
-0.0529 0.1186 -0.0653
-0.0605 0.2661 -0.0580
-0.0577 0.5057 -0.0661
-0.1083 0.7206 -0.0964
-0.0959 0.6550 -0.0975
-0.0547 0.2821 -0.0720
-0.0302 -0.5066 -0.0188
-0.1108 0.7094 -0.0834
-0.0751 0.6677 -0.0775
-0.0262 -0.2042 -0.0456
-0.0224 -0.6448 -0.0053
-0.0656 0.2540 -0.0644
-0.0780 0.7255 -0.1050
-0.0786 0.5215 -0.0838
-0.0181 -0.5386 -0.0188
-0.0306 -0.0868 -0.0519
-0.0303 -0.6097 -0.0015
-0.0895 0.6289 -0.0965
-0.0117 -0.4518 -0.0228
-0.0481 -0.0338 -0.0586
-0.0581 0.0201 -0.0524
-0.0451 -0.1868 -0.0489
-0.0502 0.3343 -0.0698
-0.0571 0.4441 -0.0745
-0.0784 0.6445 -0.0957
-0.0463 -0.0129 -0.0606
-0.0207 -0.2941 -0.0350
-0.1105 0.7173 -0.0895
-0.0433 -0.1436 -0.0343
-0.0720 0.5893 -0.0689
-0.0431 -0.6806 0.0444
-0.0304 -0.2819 -0.0444
-0.0486 0.2136 -0.0687
-0.0723 0.4486 -0.0785
-0.0656 0.5881 -0.0725
-0.0405 -0.2378 -0.0283
-0.1040 0.7121 -0.1084
-0.0533 0.4512 -0.0678
-0.0617 0.5499 -0.0655
-0.0678 0.3138 -0.0689
-0.0742 0.5169 -0.0842
-0.0911 0.6442 -0.0968
-0.0639 0.3400 -0.0619
-0.0588 0.2382 -0.0561
-0.0294 -0.5945 -0.0051
-0.0727 0.6586 -0.0814
-0.0930 0.6209 -0.0886
-0.0747 0.6248 -0.0726
-0.0423 -0.2809 -0.0254
-0.0310 -0.4219 -0.0104
-0.0541 0.4205 -0.0715
-0.0339 -0.3689 -0.0164
-0.0046 -0.6053 0.0208
-0.0717 0.4741 -0.0677
-0.0925 0.6829 -0.1013
-0.0502 0.1208 -0.0478
-0.0187 -0.6104 -0.0098
-0.0689 0.5961 -0.0706
-0.0817 0.5455 -0.0772
-0.0662 0.5843 -0.0798
-0.1102 0.7048 -0.0966
-0.0145 -0.5332 -0.0194
-0.1099 0.7317 -0.0518
-0.0648 0.5860 -0.0762
-0.0800 0.6215 -0.0949
-0.0222 -0.5326 -0.0187
-0.0413 0.1563 -0.0526
-0.0862 0.6921 -0.0728
-0.0452 -0.0926 -0.0561
-0.0415 -0.0575 -0.0397
-0.0356 -0.2582 -0.0264
-0.0152 -0.4401 -0.0277
-0.0066 -0.5418 -0.0157
-0.0293 -0.3656 -0.0366
-0.0863 0.7117 -0.1077
-0.0399 -0.1528 -0.0531
-0.0472 -0.0426 -0.0401
-0.0273 -0.6451 -0.0038
-0.0705 0.6078 -0.0831
-0.0841 0.7064 -0.1040
-0.0043 -0.5410 -0.0129
-0.0718 0.6007 -0.0861
-0.0766 0.6990 -0.0760
-0.0582 0.2423 -0.0696
-0.0338 -0.6496 0.0046
-0.0677 0.3429 -0.0715
0.0009 -0.6381 0.0229
-0.0122 -0.5813 0.0181
-0.0643 0.3814 -0.0620
-0.0594 0.5388 -0.0678
-0.0644 0.5726 -0.0686
-0.0003 -0.6580 0.0412
-0.1053 0.6941 -0.1007
-0.0558 0.4687 -0.0651
-0.0707 0.5611 -0.0868
0.0098 -0.6786 0.0374
-0.0302 -0.5988 -0.0037
-0.0354 0.0063 -0.0481
-0.0737 0.5750 -0.0686
-0.0268 -0.5725 0.0101
-0.0388 -0.1884 -0.0310
-0.0053 -0.5387 0.0013
-0.0344 -0.4553 -0.0084
-0.1042 0.7041 -0.1029
-0.0655 0.5283 -0.0622
-0.0622 0.4923 -0.0608
-0.0522 -0.1198 -0.0414
-0.0582 0.0546 -0.0590
-0.0738 0.6419 -0.0750
-0.0493 0.0848 -0.0646
-0.0454 0.2403 -0.0663
-0.0383 -0.4372 -0.0200
-0.0464 0.3181 -0.0570
-0.0447 0.2793 -0.0629
-0.0453 0.0080 -0.0429
-0.0392 0.0725 -0.0613
0.0113 -0.5900 0.0099
-0.0121 -0.5704 -0.0142
-0.0541 0.1973 -0.0688
-0.0557 0.4826 -0.0718
-0.0357 -0.2367 -0.0476
0.0193 -0.6839 0.0061
-0.0799 0.6502 -0.0968
-0.0345 -0.3521 -0.0176
-0.0294 -0.0921 -0.0484
-0.0472 -0.0988 -0.0549
0.0053 -0.5826 0.0112
-0.0337 -0.5471 -0.0008
-0.0585 0.4801 -0.0753
-0.0335 -0.5438 0.0003
-0.0037 -0.5334 -0.0050
-0.0282 -0.1790 -0.0488
-0.0519 -0.0217 -0.0431
-0.0338 -0.0641 -0.0561
-0.0900 0.6641 -0.0977
-0.1115 0.7223 -0.0827
0.0008 -0.5956 -0.0094
-0.0574 0.5128 -0.0638
-0.0417 0.0692 -0.0634
-0.1019 0.7368 -0.0332
-0.0876 0.6844 -0.1011
-0.0213 -0.3412 -0.0371
-0.0376 -0.4559 -0.0118
-0.0730 0.4305 -0.0717
-0.0376 -0.4913 -0.0132
-0.0552 0.5066 -0.0658
-0.0305 -0.3365 -0.0397
-0.0347 0.0342 -0.0517
-0.0310 -0.1404 -0.0522
-0.0459 0.0917 -0.0649
-0.0452 -0.6861 0.0383
-0.0195 -0.4990 -0.0011
-0.0105 -0.4778 -0.0217
-0.0496 -0.6787 0.0419
-0.0181 -0.4134 -0.0142
-0.0555 0.5161 -0.0673
-0.0461 -0.2072 -0.0323
-0.0557 0.0417 -0.0490
-0.0410 -0.6370 0.0064
-0.0594 0.0586 -0.0566
-0.0268 -0.2321 -0.0328
-0.0275 -0.5435 0.0051
-0.0417 -0.3682 -0.0242
-0.0965 0.6414 -0.0898
-0.0302 -0.6353 0.0366
-0.0095 -0.6227 0.0252
-0.0584 0.5278 -0.0690
-0.0456 -0.2815 -0.0286
-0.0589 0.1333 -0.0534
-0.0357 -0.5164 -0.0123
-0.0482 0.3380 -0.0662
-0.0689 0.4187 -0.0664
-0.0398 -0.4062 -0.0216
-0.0484 -0.0585 -0.0398
-0.0780 0.6251 -0.0940
-0.0437 0.0075 -0.0617
-0.1094 0.7371 -0.0596
-0.0550 0.4429 -0.0624
0.0226 -0.6698 0.0236
-0.0658 0.5349 -0.0832
-0.0918 0.6674 -0.0953
-0.0438 -0.2269 -0.0299
-0.0733 0.6220 -0.0727
-0.0490 0.1616 -0.0672
0.0136 -0.6150 0.0050
-0.0424 -0.0208 -0.0606
0.0140 -0.6756 0.0350
-0.0410 -0.3729 -0.0272
-0.0434 -0.3344 -0.0297
-0.0312 -0.5838 -0.0032
-0.0808 0.6029 -0.0936
-0.0554 -0.0532 -0.0485
-0.0313 -0.6349 0.0001
-0.0310 -0.5180 0.0004
0.0023 -0.5778 0.0130
-0.0080 -0.4896 -0.0132
-0.0305 -0.2974 -0.0241
-0.0968 0.6280 -0.0979
-0.0359 -0.2004 -0.0310
-0.0179 -0.3650 -0.0309
-0.0556 0.1857 -0.0678
-0.0373 -0.0629 -0.0417
-0.0672 0.3907 -0.0748
0.0063 -0.6281 0.0118
-0.0314 -0.3797 -0.0345
0.0114 -0.5980 0.0125
-0.0172 -0.3600 -0.0239
-0.0534 0.3936 -0.0586
-0.0244 -0.5308 0.0043
0.0191 -0.6786 -0.0126
-0.0532 0.3113 -0.0549
-0.0564 0.2966 -0.0552
-0.0262 -0.4303 -0.0098
-0.0347 0.0338 -0.0564
0.0038 -0.5818 -0.0054
-0.0587 0.0980 -0.0529
0.0108 -0.6423 0.0107
-0.0636 0.5059 -0.0615
-0.0314 -0.1872 -0.0506
-0.0568 0.4401 -0.0612
-0.0267 -0.1665 -0.0436
-0.0358 0.0815 -0.0565
-0.0852 0.5545 -0.0807
-0.0841 0.7064 -0.1040
-0.0718 0.5912 -0.0872
-0.0787 0.5250 -0.0746
-0.0100 -0.5033 -0.0200
-0.0566 0.4876 -0.0678
-0.0492 0.1580 -0.0496
-0.0115 -0.4352 -0.0191
-0.0363 -0.4943 -0.0087
-0.0643 0.5617 -0.0782
-0.0428 -0.6610 0.0157
-0.0156 -0.4158 -0.0287
-0.0343 0.0480 -0.0533
-0.0368 0.0099 -0.0592
-0.1028 0.6817 -0.0916
-0.0217 -0.3507 -0.0210
-0.0081 -0.6528 -0.0133
-0.0437 -0.1291 -0.0541
-0.0520 -0.0646 -0.0423
-0.0318 -0.5297 -0.0144
-0.1023 0.7194 -0.1041
-0.0469 0.3393 -0.0627
0.0133 -0.6868 0.0241
-0.0333 -0.5376 -0.0010
-0.0142 -0.4009 -0.0252
-0.0503 0.4013 -0.0654
-0.0150 -0.6119 -0.0105
-0.0241 -0.2405 -0.0412
-0.0540 -0.6868 0.0295
-0.0328 -0.5364 0.0007
-0.1003 0.7387 -0.0333
-0.0576 0.1047 -0.0511
-0.0684 0.3859 -0.0742
-0.0287 -0.2382 -0.0470
-0.0784 0.5746 -0.0712
0.0157 -0.6000 0.0063
-0.0436 0.2042 -0.0533
-0.0666 0.2659 -0.0655
-0.0985 0.6685 -0.0816
-0.0315 -0.0403 -0.0527
-0.0249 -0.3315 -0.0399
-0.0281 -0.1326 -0.0476
-0.0329 -0.5644 -0.0047
-0.0487 0.1222 -0.0481
-0.0182 -0.3352 -0.0286
-0.0669 0.4958 -0.0628
-0.0261 -0.5033 0.0001
-0.0524 -0.1340 -0.0466
-0.0917 0.6975 -0.1034
-0.0046 -0.6224 0.0231
-0.0784 0.6325 -0.0946
-0.0522 0.1533 -0.0495
-0.0744 0.5661 -0.0676
-0.0707 0.3847 -0.0730
-0.0428 -0.3342 -0.0326
-0.0383 0.1236 -0.0600
0.0017 -0.5856 0.0135
-0.0589 0.1856 -0.0549
-0.0337 -0.2175 -0.0490
-0.0524 -0.0749 -0.0428
-0.0758 0.6611 -0.0935
-0.0492 -0.1929 -0.0362
-0.0531 0.0046 -0.0589
-0.0368 0.0348 -0.0588
-0.0708 0.6240 -0.0814
-0.0343 -0.4963 -0.0047
-0.0432 -0.1998 -0.0486
-0.0803 0.6583 -0.0739
-0.1060 0.7187 -0.1021
-0.0236 -0.5790 -0.0116
-0.0504 -0.1798 -0.0425
-0.0476 -0.2486 -0.0369
-0.1000 0.6942 -0.0608
-0.0556 -0.0534 -0.0513
-0.0406 -0.2552 -0.0446
-0.0328 -0.0680 -0.0443
-0.0516 0.2172 -0.0692
-0.0804 0.7025 -0.1009
-0.0403 0.1118 -0.0623
-0.0345 -0.1093 -0.0552
-0.0015 -0.5456 -0.0076
-0.0552 0.4106 -0.0735
-0.0734 0.4186 -0.0731
-0.0729 0.5115 -0.0682
-0.0712 0.5409 -0.0858
-0.0593 0.5036 -0.0608
-0.0654 0.5514 -0.0811
-0.0277 -0.1638 -0.0471
-0.0386 -0.1079 -0.0561
-0.0866 0.6302 -0.0966
-0.0447 0.1804 -0.0505
-0.0382 0.0976 -0.0519
-0.0363 -0.5350 -0.0077
-0.0129 -0.5219 -0.0205
-0.0614 0.3054 -0.0718
-0.0607 0.3748 -0.0758
-0.0131 -0.4182 -0.0243
-0.0543 0.4520 -0.0715
-0.0724 0.6909 -0.0819
-0.0491 0.3722 -0.0668
-0.0651 -0.6655 0.0273
-0.0784 0.5516 -0.0867
-0.0734 0.4614 -0.0712
-0.0910 0.5998 -0.0883
-0.0444 0.2369 -0.0538
-0.0271 -0.6554 -0.0027
-0.0374 -0.1156 -0.0371
-0.0449 0.1401 -0.0659
-0.0842 0.5782 -0.0772
-0.0287 -0.6226 -0.0032
-0.0663 0.7290 -0.0974
-0.0469 0.3205 -0.0564
-0.0379 0.0231 -0.0602
-0.0395 0.1639 -0.0606
-0.0166 -0.4426 -0.0100
-0.0225 -0.2819 -0.0393
-0.0571 0.4886 -0.0647
-0.0528 0.4300 -0.0638
-0.0949 0.6252 -0.0858
-0.1135 0.7294 -0.0575
-0.0602 0.1068 -0.0604
-0.0469 0.0135 -0.0616
-0.0159 -0.4628 -0.0265
-0.0047 -0.5247 -0.0126
-0.0375 -0.0396 -0.0590
-0.0626 0.1861 -0.0640
-0.0539 -0.0824 -0.0453
-0.0543 0.0792 -0.0628
0.0031 -0.6092 -0.0114
-0.0361 0.0758 -0.0534
-0.0418 -0.3586 -0.0218
-0.0511 -0.1603 -0.0402
-0.0700 0.5932 -0.0847
0.0104 -0.6026 -0.0057
-0.0374 0.1250 -0.0565
-0.0510 0.0123 -0.0442
-0.0516 -0.1406 -0.0408
-0.0384 -0.3547 -0.0185
0.0184 -0.6523 0.0019
-0.0517 0.1494 -0.0671
-0.0528 -0.6868 0.0152
-0.0631 0.1822 -0.0611
-0.0515 -0.6832 0.0371
-0.0706 0.7318 -0.1008
-0.0464 -0.6249 0.0220
-0.0445 -0.2456 -0.0433
-0.0350 -0.0198 -0.0572
-0.0234 -0.4115 -0.0325
-0.0637 0.5567 -0.0654
-0.0280 -0.2072 -0.0479
-0.0482 0.1686 -0.0500
-0.0164 -0.5179 -0.0214
-0.0478 0.3506 -0.0593
-0.0437 0.2517 -0.0633
-0.0908 0.6868 -0.1036
-0.0342 -0.4768 -0.0209
-0.0162 -0.3713 -0.0266
-0.0409 0.1154 -0.0499
0.0099 -0.6062 0.0111
-0.0682 0.5855 -0.0822
0.0110 -0.6116 -0.0023
0.0195 -0.6734 -0.0003
-0.0428 -0.2858 -0.0399
0.0157 -0.6568 -0.0145
-0.0828 0.6206 -0.0956
-0.0588 0.1357 -0.0638
0.0180 -0.6794 0.0169
-0.0387 -0.4049 -0.0252
-0.0092 -0.5530 -0.0158
-0.0443 0.0338 -0.0445
0.0116 -0.5903 0.0028
-0.0210 -0.3206 -0.0255
-0.0767 0.5642 -0.0885
-0.0819 0.6347 -0.0964
-0.0481 -0.6866 0.0380
-0.0597 0.4111 -0.0762
-0.0712 0.7158 -0.1008
-0.0180 -0.6185 -0.0092
-0.0673 0.5968 -0.0723
-0.1091 0.7138 -0.1017
0.0167 -0.6913 -0.0050
-0.0258 -0.5942 -0.0083
-0.0646 0.2282 -0.0647
-0.0329 -0.2898 -0.0437
-0.0623 0.5604 -0.0675
-0.0515 -0.6749 0.0154
-0.0096 -0.6087 0.0235
-0.0490 -0.1034 -0.0387
-0.0281 -0.6000 0.0227
