-0.0891 -0.5376 0.0018
-0.0892 -0.5359 0.0018
-0.0892 -0.5341 0.0018
-0.0893 -0.5322 0.0018
-0.0893 -0.5303 0.0018
-0.0893 -0.5283 0.0018
-0.0893 -0.5262 0.0018
-0.0893 -0.5241 0.0017
-0.0892 -0.5219 0.0017
-0.0891 -0.5197 0.0017
-0.0890 -0.5173 0.0017
-0.0889 -0.5149 0.0017
-0.0887 -0.5125 0.0017
-0.0886 -0.5100 0.0017
-0.0884 -0.5074 0.0017
-0.0881 -0.5047 0.0017
-0.0879 -0.5020 0.0017
-0.0876 -0.4993 0.0017
-0.0874 -0.4964 0.0017
-0.0871 -0.4936 0.0017
-0.0867 -0.4906 0.0017
-0.0864 -0.4876 0.0017
-0.0860 -0.4846 0.0017
-0.0857 -0.4815 0.0017
-0.0853 -0.4783 0.0017
-0.0848 -0.4751 0.0016
-0.0844 -0.4718 0.0016
-0.0839 -0.4685 0.0016
-0.0835 -0.4651 0.0016
-0.0830 -0.4617 0.0016
-0.0825 -0.4582 0.0016
-0.0819 -0.4546 0.0016
-0.0814 -0.4511 0.0016
-0.0808 -0.4474 0.0016
-0.0802 -0.4437 0.0016
-0.0796 -0.4400 0.0016
-0.0790 -0.4362 0.0016
-0.0784 -0.4324 0.0015
-0.0777 -0.4286 0.0015
-0.0770 -0.4247 0.0015
-0.0763 -0.4207 0.0015
-0.0756 -0.4167 0.0015
-0.0749 -0.4127 0.0015
-0.0742 -0.4086 0.0015
-0.0734 -0.4045 0.0015
-0.0727 -0.4003 0.0015
-0.0719 -0.3961 0.0015
-0.0711 -0.3919 0.0014
-0.0703 -0.3876 0.0014
-0.0694 -0.3833 0.0014
-0.0686 -0.3789 0.0014
-0.0677 -0.3745 0.0014
-0.0669 -0.3701 0.0014
-0.0660 -0.3657 0.0014
-0.0651 -0.3612 0.0014
-0.0642 -0.3566 0.0014
-0.0632 -0.3521 0.0013
-0.0623 -0.3475 0.0013
-0.0614 -0.3429 0.0013
-0.0604 -0.3382 0.0013
-0.0594 -0.3336 0.0013
-0.0584 -0.3289 0.0013
-0.0574 -0.3241 0.0013
-0.0564 -0.3194 0.0013
-0.0554 -0.3146 0.0013
-0.0543 -0.3098 0.0012
-0.0533 -0.3049 0.0012
-0.0522 -0.3001 0.0012
-0.0512 -0.2952 0.0012
-0.0501 -0.2903 0.0012
-0.0490 -0.2853 0.0012
-0.0479 -0.2804 0.0012
-0.0468 -0.2754 0.0012
-0.0456 -0.2704 0.0011
-0.0445 -0.2654 0.0011
-0.0433 -0.2604 0.0011
-0.0422 -0.2553 0.0011
-0.0410 -0.2503 0.0011
-0.0399 -0.2452 0.0011
-0.0387 -0.2401 0.0011
-0.0375 -0.2350 0.0011
-0.0363 -0.2299 0.0010
-0.0351 -0.2247 0.0010
-0.0339 -0.2196 0.0010
-0.0326 -0.2144 0.0010
-0.0314 -0.2092 0.0010
-0.0302 -0.2040 0.0010
-0.0289 -0.1988 0.0010
-0.0277 -0.1936 0.0009
-0.0264 -0.1884 0.0009
-0.0251 -0.1832 0.0009
-0.0238 -0.1780 0.0009
-0.0226 -0.1727 0.0009
-0.0213 -0.1675 0.0009
-0.0200 -0.1622 0.0009
-0.0187 -0.1570 0.0009
-0.0174 -0.1517 0.0008
-0.0161 -0.1465 0.0008
-0.0147 -0.1412 0.0008
-0.0134 -0.1360 0.0008
-0.0121 -0.1307 0.0008
-0.0108 -0.1254 0.0008
-0.0094 -0.1202 0.0008
-0.0081 -0.1149 0.0008
-0.0067 -0.1097 0.0007
-0.0054 -0.1044 0.0007
-0.0040 -0.0992 0.0007
-0.0027 -0.0939 0.0007
-0.0013 -0.0887 0.0007
0.0001 -0.0835 0.0007
0.0014 -0.0782 0.0007
0.0028 -0.0730 0.0006
0.0042 -0.0678 0.0006
0.0055 -0.0626 0.0006
0.0069 -0.0574 0.0006
0.0083 -0.0522 0.0006
0.0097 -0.0471 0.0006
0.0111 -0.0419 0.0006
0.0124 -0.0367 0.0006
0.0138 -0.0316 0.0005
0.0152 -0.0265 0.0005
0.0166 -0.0214 0.0005
0.0180 -0.0163 0.0005
0.0194 -0.0112 0.0005
0.0208 -0.0062 0.0005
0.0222 -0.0011 0.0005
0.0236 0.0039 0.0005
0.0250 0.0089 0.0005
0.0263 0.0139 0.0004
0.0277 0.0188 0.0004
0.0291 0.0238 0.0004
0.0305 0.0287 0.0004
0.0319 0.0336 0.0004
0.0333 0.0385 0.0004
0.0347 0.0433 0.0004
0.0361 0.0482 0.0004
0.0374 0.0530 0.0004
0.0388 0.0577 0.0003
0.0402 0.0625 0.0003
0.0416 0.0672 0.0003
0.0429 0.0719 0.0003
0.0443 0.0765 0.0003
0.0457 0.0812 0.0003
0.0470 0.0858 0.0003
0.0484 0.0904 0.0003
0.0497 0.0949 0.0003
0.0511 0.0994 0.0002
0.0524 0.1039 0.0002
0.0538 0.1083 0.0002
0.0551 0.1127 0.0002
0.0564 0.1171 0.0002
0.0578 0.1214 0.0002
0.0591 0.1257 0.0002
0.0604 0.1300 0.0002
0.0617 0.1342 0.0002
0.0630 0.1384 0.0002
0.0643 0.1425 0.0002
0.0656 0.1466 0.0002
0.0669 0.1507 0.0001
0.0682 0.1547 0.0001
0.0695 0.1587 0.0001
0.0708 0.1626 0.0001
0.0720 0.1665 0.0001
0.0733 0.1703 0.0001
0.0745 0.1741 0.0001
0.0758 0.1779 0.0001
0.0770 0.1816 0.0001
0.0782 0.1852 0.0001
0.0794 0.1889 0.0001
0.0807 0.1924 0.0001
0.0819 0.1959 0.0001
0.0831 0.1994 0.0001
0.0842 0.2028 0.0001
0.0854 0.2061 0.0000
0.0866 0.2094 0.0000
0.0877 0.2127 0.0000
0.0889 0.2159 0.0000
0.0900 0.2190 0.0000
0.0911 0.2221 0.0000
0.0923 0.2251 0.0000
0.0934 0.2281 0.0000
0.0945 0.2310 0.0000
0.0955 0.2339 0.0000
0.0966 0.2367 0.0000
0.0977 0.2394 0.0000
0.0987 0.2421 0.0000
0.0998 0.2447 0.0000
0.1008 0.2473 0.0000
0.1018 0.2497 -0.0000
0.1028 0.2522 -0.0000
0.1038 0.2545 -0.0000
0.1048 0.2568 -0.0000
0.1058 0.2591 -0.0000
0.1067 0.2612 -0.0000
0.1077 0.2633 -0.0000
0.1086 0.2653 -0.0000
0.1095 0.2673 -0.0000
0.1104 0.2692 -0.0000
0.1113 0.2710 -0.0000
0.1122 0.2728 -0.0000
0.1130 0.2745 -0.0000
0.1139 0.2761 0.0000
