ply
format ascii 1.0
comment written by export_pc_in_blender.py
element vertex 79
property float x
property float y
property float z
end_header
-0.2944 -0.4725 -0.0995
-0.2932 -0.4558 -0.0960
-0.2941 -0.4600 -0.0968
-0.2955 -0.4795 -0.1009
-0.2938 -0.4624 -0.0972
-0.2923 -0.4761 -0.1001
-0.2912 -0.4764 -0.1002
-0.2989 -0.4826 -0.1017
-0.2880 -0.4745 -0.0997
-0.2798 -0.4722 -0.0992
-0.2962 -0.4817 -0.1015
-0.2828 -0.4720 -0.0990
-0.2964 -0.4802 -0.1011
-0.2944 -0.4582 -0.0965
-0.2945 -0.4578 -0.0965
-0.2592 -0.4690 -0.0980
-0.2822 -0.4730 -0.0993
-0.2943 -0.4556 -0.0960
-0.2839 -0.4735 -0.0994
-0.2963 -0.4801 -0.1011
-0.2940 -0.4692 -0.0988
-0.2899 -0.4547 -0.0957
-0.2952 -0.4786 -0.1008
-0.2803 -0.4723 -0.0992
-0.2928 -0.4550 -0.0959
-0.2951 -0.4759 -0.1003
-0.2810 -0.4730 -0.0988
-0.2849 -0.4724 -0.0993
-0.2753 -0.4716 -0.0989
-0.2761 -0.4703 -0.0987
-0.2938 -0.4782 -0.1006
-0.2930 -0.4554 -0.0960
-0.2963 -0.4674 -0.0984
-0.2956 -0.4792 -0.1009
-0.2950 -0.4794 -0.1009
-0.2919 -0.4708 -0.0990
-0.2922 -0.4541 -0.0957
-0.2944 -0.4781 -0.1006
-0.2960 -0.4808 -0.1015
-0.2906 -0.4643 -0.0971
-0.2932 -0.4611 -0.0973
-0.2777 -0.4738 -0.0990
-0.2956 -0.4793 -0.1009
-0.2799 -0.4722 -0.0991
-0.2939 -0.4770 -0.1004
-0.2821 -0.4729 -0.0994
-0.2852 -0.4728 -0.0989
-0.2949 -0.4751 -0.1000
-0.2932 -0.4569 -0.0963
-0.2915 -0.4748 -0.0998
-0.2871 -0.4664 -0.0981
-0.2893 -0.4659 -0.0980
-0.2877 -0.4744 -0.0998
-0.2952 -0.4744 -0.1000
-0.2962 -0.4778 -0.1007
-0.2907 -0.4550 -0.0958
-0.2976 -0.4785 -0.1010
-0.2922 -0.4769 -0.1004
-0.2876 -0.4694 -0.0987
-0.2958 -0.4764 -0.1005
-0.2842 -0.4723 -0.0992
-0.2937 -0.4687 -0.0987
-0.2960 -0.4799 -0.1010
-0.2869 -0.4732 -0.0992
-0.2756 -0.4720 -0.0990
-0.2939 -0.4744 -0.0999
-0.2773 -0.4708 -0.0988
-0.2748 -0.4718 -0.0990
-0.2869 -0.4746 -0.0998
-0.2927 -0.4541 -0.0957
-0.2949 -0.4706 -0.0988
-0.2836 -0.4716 -0.0990
-0.2965 -0.4669 -0.0983
-0.2875 -0.4729 -0.0994
-0.2791 -0.4727 -0.0991
-0.2990 -0.4821 -0.1017
-0.2976 -0.4825 -0.1017
-0.2926 -0.4762 -0.1002
-0.2931 -0.4764 -0.1003
