-0.4073 -0.5837 -0.1299
-0.4207 -0.6051 -0.1346
-0.4204 -0.608 -0.1353
-0.4028 -0.5809 -0.1269
-0.4282 -0.5987 -0.1461
-0.4228 -0.6167 -0.1369
-0.4217 -0.607 -0.1354
-0.4256 -0.6049 -0.143
-0.4248 -0.6122 -0.1411
-0.4211 -0.6037 -0.1383
-0.421 -0.5994 -0.1362
-0.4351 -0.5955 -0.1497
-0.4189 -0.6019 -0.1371
-0.4212 -0.6064 -0.1346
-0.4113 -0.5893 -0.1337
-0.4179 -0.5963 -0.137
-0.4295 -0.5847 -0.1522
-0.4208 -0.6015 -0.1375
-0.4061 -0.5846 -0.1307
-0.4236 -0.5666 -0.1332
-0.427 -0.5943 -0.1412
-0.4213 -0.598 -0.1386
-0.4338 -0.5983 -0.1463
-0.4285 -0.5628 -0.1368
-0.4269 -0.5588 -0.1362
-0.417 -0.573 -0.133
-0.4134 -0.5939 -0.133
-0.4296 -0.602 -0.142
-0.4054 -0.5845 -0.1304
-0.4227 -0.6082 -0.1392
-0.4471 -0.5922 -0.1549
-0.4478 -0.5887 -0.153
-0.4098 -0.5864 -0.1332
-0.4209 -0.6083 -0.1352
-0.4055 -0.5813 -0.1298
-0.4111 -0.581 -0.1357
-0.4266 -0.6114 -0.1418
-0.4264 -0.577 -0.1374
-0.4201 -0.6078 -0.1328
-0.4327 -0.5956 -0.1437
-0.4197 -0.6064 -0.1329
-0.4276 -0.5888 -0.1393
-0.416 -0.5861 -0.137
-0.4069 -0.5834 -0.1294
-0.4262 -0.6145 -0.1401
-0.4157 -0.6009 -0.1328
-0.421 -0.6071 -0.1343
-0.4535 -0.5863 -0.1561
-0.4253 -0.5807 -0.1477
-0.4119 -0.5874 -0.1345
-0.4415 -0.5873 -0.149
-0.3983 -0.574 -0.1287
-0.4126 -0.5925 -0.1314
-0.4243 -0.6101 -0.141
-0.4287 -0.5843 -0.1392
-0.4313 -0.5598 -0.1376
-0.4284 -0.6074 -0.1411
-0.426 -0.6132 -0.1408
-0.4081 -0.5849 -0.1334
-0.4044 -0.5814 -0.1292
-0.4275 -0.5991 -0.1447
-0.4211 -0.6043 -0.1346
-0.4348 -0.5952 -0.1483
-0.4215 -0.6013 -0.1366
-0.4188 -0.6018 -0.1325
-0.4405 -0.5922 -0.1517
-0.4231 -0.5827 -0.1358
-0.4216 -0.6071 -0.1348
-0.4192 -0.5698 -0.1341
-0.4338 -0.5572 -0.1383
-0.4138 -0.585 -0.1346
-0.4021 -0.5796 -0.1284
-0.4266 -0.5625 -0.1339
-0.4358 -0.5923 -0.1437
-0.429 -0.5868 -0.1396
-0.4318 -0.592 -0.1419
-0.4072 -0.5836 -0.1295
-0.4024 -0.5784 -0.1305
-0.4164 -0.59 -0.1358
-0.4429 -0.588 -0.1496
-0.4281 -0.6004 -0.146
-0.4242 -0.6148 -0.1394
-0.451 -0.5874 -0.1539
-0.4141 -0.5934 -0.1314
-0.4358 -0.5885 -0.1431
-0.4268 -0.5719 -0.1391
-0.4208 -0.6052 -0.1338
-0.4265 -0.568 -0.135
-0.4386 -0.5938 -0.1509
-0.4189 -0.5986 -0.1332
-0.4111 -0.5764 -0.1321
-0.4032 -0.572 -0.1308
-0.4448 -0.587 -0.1491
-0.4196 -0.6007 -0.1333
-0.4299 -0.6063 -0.1411
-0.4255 -0.6043 -0.1421
-0.426 -0.5652 -0.1359
-0.4036 -0.5778 -0.1313
-0.4043 -0.5788 -0.1316
-0.4015 -0.5765 -0.1302
-0.4186 -0.5963 -0.1333
-0.4291 -0.5703 -0.1378
-0.4031 -0.5815 -0.1264
-0.4165 -0.594 -0.1327
-0.4211 -0.571 -0.1324
-0.4189 -0.5995 -0.133
-0.4223 -0.5651 -0.134
-0.4099 -0.5831 -0.1335
-0.4314 -0.5992 -0.1436
-0.4282 -0.608 -0.1423
-0.4005 -0.5799 -0.1278
-0.404 -0.5806 -0.1294
-0.4354 -0.5922 -0.1458
-0.4177 -0.5982 -0.1329
-0.4316 -0.5948 -0.1411
-0.4089 -0.5873 -0.1325
-0.4175 -0.6009 -0.1316
-0.411 -0.5886 -0.1313
-0.4173 -0.597 -0.1324
-0.4303 -0.5642 -0.1393
-0.4159 -0.596 -0.1319
-0.413 -0.5904 -0.1348
-0.4208 -0.5997 -0.1349
-0.4309 -0.5855 -0.1403
-0.4064 -0.5831 -0.1262
-0.4306 -0.5571 -0.1355
-0.422 -0.5695 -0.1323
-0.4263 -0.6038 -0.1419
-0.4174 -0.591 -0.1367
-0.4354 -0.5852 -0.1428
-0.4238 -0.611 -0.1404
-0.4041 -0.5823 -0.1298
-0.4004 -0.5725 -0.1297
-0.4059 -0.5743 -0.1327
-0.4357 -0.5953 -0.1494
-0.4496 -0.5874 -0.1553
-0.4103 -0.588 -0.1333
-0.4226 -0.6022 -0.1395
-0.425 -0.614 -0.1401
-0.4488 -0.5893 -0.1539
