0.182 0.1131 0.0149
0.1817 0.1112 0.0086
0.18 0.1418 -0.0104
0.183 0.1328 -0.0053
0.1796 0.1102 -0.0028
0.1773 0.1229 -0.0072
0.1875 0.1291 0
0.2033 0.1408 0.025
0.1972 0.1416 0.0068
0.2014 0.1441 0.0286
0.1785 0.139 -0.0106
0.1792 0.1377 -0.0101
0.1804 0.1118 0.013
0.1885 0.129 0.0206
0.201 0.1395 0.023
0.1804 0.1182 -0.0054
0.1788 0.1227 -0.0063
0.18 0.1323 -0.007
0.1787 0.107 -0.0048
0.1924 0.126 0.0241
0.1786 0.1007 0.0004
0.1795 0.137 -0.0096
0.1787 0.1309 -0.0084
0.1884 0.1312 0.0189
0.1804 0.1057 0.0074
0.1857 0.1269 -0.0011
0.1858 0.1313 -0.0024
0.1853 0.1283 -0.0026
0.1813 0.1033 0.0095
0.1811 0.1209 -0.0053
0.1853 0.1255 0
0.1849 0.1329 -0.0046
0.1786 0.1417 -0.0117
0.1791 0.1125 -0.0049
0.1917 0.1327 0.0053
0.1796 0.1419 -0.0112
0.1873 0.1193 0.0201
0.195 0.1386 0.0044
0.179 0.137 -0.0094
0.193 0.134 0.0246
0.1807 0.1197 -0.0051
0.1809 0.1424 -0.0101
0.1785 0.1206 -0.0055
0.1797 0.1328 -0.0075
0.1957 0.1394 0.0093
0.1895 0.1269 0.0246
0.2041 0.1454 0.0052
0.1881 0.1195 0.0214
0.1788 0.1417 -0.0115
0.1949 0.1395 0.003
0.187 0.1262 0.0006
0.1824 0.1396 -0.0082
0.1793 0.1071 -0.0016
0.1783 0.1244 -0.0067
0.1858 0.128 -0.0002
0.1814 0.1354 -0.0067
0.1831 0.1049 0.0019
0.179 0.1341 -0.0083
0.1799 0.11 0.0062
0.2024 0.1439 0.0185
0.1798 0.105 0.007
0.1872 0.1192 0.0198
0.1781 0.1088 0.0135
0.1872 0.1279 0.0002
0.1841 0.1192 0.0152
0.1806 0.1129 -0.0042
0.1785 0.101 0.0022
0.1809 0.1039 -0.0004
0.1855 0.1202 0.0178
0.1797 0.1049 -0.0014
0.1785 0.1069 -0.0027
0.179 0.1421 -0.0118
0.1945 0.1363 0.0048
0.1791 0.1121 0.0097
0.184 0.1067 0.0026
0.1789 0.1424 -0.0117
0.1814 0.1202 -0.003
0.1957 0.1357 -0.0018
0.1915 0.1212 0.0083
0.1811 0.1404 -0.0099
0.1806 0.1379 -0.0094
0.1886 0.1167 0.0054
0.2047 0.1432 0.011
0.1856 0.1302 -0.0028
0.1803 0.1167 -0.0052
0.1811 0.1226 -0.0039
0.1775 0.1079 -0.0054
0.1838 0.1158 0.0008
0.1797 0.1089 -0.002
0.1789 0.1419 -0.0119
0.181 0.1407 -0.0101
0.1805 0.1354 -0.0087
0.1959 0.1301 0.0123
0.1832 0.1216 0.0134
0.18 0.1289 -0.0061
0.1769 0.1073 -0.0044
0.1808 0.1035 -0.0005
0.1808 0.1371 -0.0085
0.1799 0.1403 -0.0087
0.1786 0.1047 -0.0027
0.1978 0.1398 0.009
0.181 0.1151 0.012
0.1831 0.1146 0.0182
0.19 0.1341 0.0016
0.1796 0.1099 -0.0029
0.1969 0.1368 0.008
0.1803 0.1342 -0.008
0.1778 0.1023 -0.0036
0.1899 0.1326 0.0266
0.1813 0.1341 -0.0065
0.1781 0.1218 -0.0066
0.1816 0.1186 -0.0039
0.1797 0.1098 -0.0028
0.18 0.1082 -0.0038
0.1807 0.1349 -0.0071
0.1831 0.1233 -0.0019
0.1802 0.1366 -0.0091
0.1807 0.1056 -0.001
0.1838 0.1081 0.0021
0.1812 0.1111 -0.0014
0.1922 0.1321 -0.0046
0.2023 0.1485 0.0152
0.2059 0.1487 0.0279
0.204 0.1523 0.02
0.199 0.1467 0.0294
