ply
format ascii 1.0
comment written by export_pc_in_blender.py
element vertex 151
property float x
property float y
property float z
end_header
-0.1133 -0.4165 -0.0692
-0.1154 -0.3902 -0.0863
-0.1303 -0.4141 -0.0783
-0.1110 -0.4172 -0.0670
-0.1112 -0.4168 -0.0676
-0.1187 -0.4142 -0.0761
-0.1380 -0.4186 -0.0797
-0.1174 -0.4119 -0.0740
-0.1096 -0.4181 -0.0657
-0.1070 -0.4180 -0.0645
-0.1281 -0.4109 -0.0788
-0.1089 -0.4172 -0.0660
-0.1340 -0.4171 -0.0781
-0.1417 -0.4208 -0.0799
-0.1090 -0.3802 -0.0884
-0.1384 -0.4170 -0.0802
-0.1428 -0.4209 -0.0802
-0.1145 -0.4119 -0.0723
-0.1115 -0.3832 -0.0867
-0.1042 -0.4188 -0.0621
-0.1189 -0.4052 -0.0832
-0.1179 -0.4133 -0.0755
-0.1106 -0.4175 -0.0665
-0.1307 -0.4130 -0.0789
-0.1311 -0.4184 -0.0784
-0.1176 -0.4128 -0.0769
-0.1143 -0.4138 -0.0715
-0.1358 -0.4158 -0.0797
-0.1382 -0.4169 -0.0802
-0.1102 -0.3811 -0.0876
-0.1321 -0.4174 -0.0787
-0.1417 -0.4207 -0.0807
-0.1276 -0.4106 -0.0788
-0.1071 -0.4178 -0.0643
-0.1432 -0.4217 -0.0808
-0.1277 -0.4189 -0.0780
-0.1187 -0.3955 -0.0840
-0.1099 -0.4167 -0.0654
-0.1228 -0.4160 -0.0797
-0.1090 -0.4178 -0.0653
-0.1166 -0.3930 -0.0856
-0.1242 -0.4173 -0.0790
-0.1297 -0.4155 -0.0778
-0.1212 -0.4139 -0.0800
-0.1145 -0.4087 -0.0740
-0.1266 -0.4107 -0.0783
-0.1265 -0.4099 -0.0784
-0.1078 -0.4180 -0.0647
-0.1106 -0.3817 -0.0876
-0.1355 -0.4150 -0.0797
-0.1192 -0.3995 -0.0846
-0.1429 -0.4213 -0.0806
-0.1434 -0.4210 -0.0805
-0.1197 -0.4111 -0.0755
-0.1419 -0.4209 -0.0809
-0.1186 -0.3985 -0.0836
-0.1069 -0.4176 -0.0635
-0.1387 -0.4191 -0.0801
-0.1126 -0.4163 -0.0687
-0.1102 -0.3817 -0.0877
-0.1137 -0.4155 -0.0700
-0.1447 -0.4218 -0.0807
-0.1177 -0.3937 -0.0850
-0.1097 -0.3804 -0.0881
-0.1159 -0.3895 -0.0808
-0.1297 -0.4169 -0.0782
-0.1439 -0.4212 -0.0806
-0.1322 -0.4131 -0.0793
-0.1109 -0.3828 -0.0861
-0.1230 -0.4159 -0.0799
-0.1184 -0.4116 -0.0748
-0.1234 -0.4087 -0.0778
-0.1431 -0.4212 -0.0812
-0.1151 -0.4083 -0.0749
-0.1147 -0.3909 -0.0826
-0.1047 -0.4186 -0.0622
-0.1259 -0.4097 -0.0783
-0.1365 -0.4181 -0.0798
-0.1123 -0.3854 -0.0856
-0.1147 -0.3988 -0.0800
-0.1216 -0.4110 -0.0764
-0.1039 -0.4184 -0.0625
-0.1107 -0.3835 -0.0859
-0.1188 -0.4096 -0.0756
-0.1173 -0.4121 -0.0740
-0.1199 -0.4118 -0.0811
-0.1146 -0.4138 -0.0717
-0.1130 -0.4144 -0.0694
-0.1134 -0.4152 -0.0700
-0.1132 -0.3870 -0.0855
-0.1121 -0.4103 -0.0714
-0.1058 -0.4179 -0.0634
-0.1195 -0.4026 -0.0842
-0.1096 -0.4170 -0.0664
-0.1075 -0.4177 -0.0646
-0.1382 -0.4189 -0.0801
-0.1108 -0.4180 -0.0667
-0.1148 -0.4098 -0.0734
-0.1328 -0.4167 -0.0792
-0.1254 -0.4179 -0.0779
-0.1198 -0.4116 -0.0808
-0.1153 -0.3898 -0.0866
-0.1271 -0.4189 -0.0783
-0.1179 -0.3965 -0.0848
-0.1102 -0.3812 -0.0879
-0.1033 -0.4185 -0.0621
-0.1316 -0.4125 -0.0794
-0.1094 -0.3796 -0.0883
-0.1442 -0.4223 -0.0812
-0.1238 -0.4101 -0.0775
-0.1177 -0.4119 -0.0742
-0.1192 -0.3990 -0.0848
-0.1393 -0.4179 -0.0802
-0.1221 -0.4108 -0.0768
-0.1062 -0.4172 -0.0631
-0.1051 -0.4186 -0.0629
-0.1307 -0.4119 -0.0794
-0.1046 -0.4188 -0.0624
-0.1193 -0.4113 -0.0753
-0.1410 -0.4204 -0.0802
-0.1101 -0.4169 -0.0669
-0.1239 -0.4170 -0.0791
-0.1035 -0.4184 -0.0622
-0.1143 -0.3882 -0.0872
-0.1210 -0.4122 -0.0816
-0.1170 -0.3927 -0.0854
-0.1050 -0.4181 -0.0631
-0.1201 -0.4000 -0.0855
-0.1395 -0.4192 -0.0801
-0.1175 -0.4128 -0.0758
-0.1447 -0.4222 -0.0815
-0.1190 -0.3988 -0.0848
-0.1340 -0.4172 -0.0794
-0.1190 -0.3988 -0.0848
-0.1297 -0.4115 -0.0791
-0.1182 -0.3942 -0.0844
-0.1115 -0.4165 -0.0678
-0.1315 -0.4182 -0.0784
-0.1151 -0.4029 -0.0799
-0.1227 -0.4145 -0.0811
-0.1117 -0.4169 -0.0678
-0.1443 -0.4219 -0.0814
-0.1148 -0.3891 -0.0869
-0.1390 -0.4204 -0.0801
-0.1143 -0.3900 -0.0838
-0.1143 -0.4149 -0.0709
-0.1144 -0.4120 -0.0722
-0.1142 -0.3880 -0.0871
-0.1436 -0.4216 -0.0813
-0.1066 -0.4183 -0.0638
-0.1206 -0.4018 -0.0846
