-0.2287 0.1991 -0.0006
-0.302 0.1656 0.0409
-0.2459 0.1886 0.0616
-0.3024 0.1616 -0.046
-0.3192 0.1207 0.0011
-0.3077 0.1124 -0.0829
-0.302 0.0872 -0.0391
-0.2409 0.1998 -0.09
-0.0555 0.2906 0.0832
-0.0059 0.3077 0.0952
-0.0044 0.3099 0.0673
-0.1822 0.2184 -0.0045
-0.1887 0.2131 0.0842
-0.1166 0.247 0.042
-0.1223 0.2437 -0.0449
-0.1791 0.2257 -0.0599
-0.062 0.2748 0.0136
-0.0609 0.2724 -0.0144
-0.0361 0.2869 -0.001
-0.0017 0.3056 0.016
-0.0525 0.2745 -0.0869
-0.0002 0.3011 -0.0167
0.0025 0.2943 -0.0709
0.004 0.2917 -0.1001
-0.2985 0.0932 -0.098
-0.2615 0.027 -0.072
0.054 0.2934 0.0894
0.0586 0.3006 0.0157
0.1135 0.2092 0.0997
0.1051 0.2479 0.0528
0.1169 0.2241 0.0339
0.0826 0.2863 0.0051
0.1188 0.2261 -0.0348
0.0601 0.299 -0.0119
0.0727 0.2825 -0.0803
0.123 0.2098 -0.0906
0.133 0.163 0.0626
0.1253 0.2013 0.0156
0.1528 0.116 0.0254
0.1383 0.1543 -0.022
0.1742 0.0636 -0.0048
0.1536 0.1076 -0.0591
0.1288 0.1927 -0.0689
0.1417 0.1456 -0.1064
0.1749 0.0228 -0.0496
0.1665 0.0611 -0.0966
0.1673 -0.0234 -0.0883
-0.2699 0.0443 0.097
-0.2463 0.0064 0.0561
-0.3165 0.1293 0.0861
-0.3085 0.1466 0.1011
-0.305 0.0917 0.0455
-0.2676 0.0356 0.0125
-0.2264 -0.0406 0.108
-0.2417 -0.0024 -0.0284
-0.2009 -0.1721 0.0792
-0.1917 -0.1917 0.1037
-0.1894 -0.1975 0.0594
-0.1738 -0.2188 0.0427
-0.128 -0.2471 0.0222
-0.0681 -0.2425 0.0297
-0.0113 -0.2172 0.0489
-0.2165 -0.0876 0.07
-0.2055 -0.1342 0.0325
-0.2215 -0.0494 0.0234
-0.207 -0.0959 -0.0144
-0.1879 -0.1938 0.0024
-0.1952 -0.1426 -0.0516
-0.1803 -0.1793 -0.095
-0.165 -0.2275 -0.0417
-0.1261 -0.2504 -0.0119
-0.218 -0.058 -0.061
-0.207 -0.1046 -0.0989
-0.0658 -0.2465 -0.014
-0.009 -0.2212 -0.038
-0.001 -0.2153 -0.0992
0.1711 -0.0251 0.1042
0.1799 -0.0069 0.0818
0.1749 0.0796 0.0732
0.1841 0.031 0.0356
0.1032 -0.1705 0.0991
0.0544 -0.181 -0.0837
0.0975 -0.1456 -0.0365
0.1127 -0.1458 0.0418
0.1108 -0.156 0.0716
0.1162 -0.1259 -0.0194
0.1192 -0.1171 -0.0786
0.1421 -0.0912 0.0882
0.1188 -0.1374 0.0496
0.1589 -0.0529 0.0428
0.1726 -0.0273 0.0647
0.1341 -0.0995 0.0037
0.1749 -0.0085 0.0023
0.1536 -0.0616 -0.0425
