0.0456 -0.8576 0.0403
0.0093 0.1494 -0.0675
0.0044 0.3824 -0.0514
0.0490 -0.8730 0.0481
0.0212 -0.6711 -0.0331
-0.0322 0.8288 -0.0025
0.0185 0.0836 -0.0774
-0.0123 0.7628 -0.0152
0.0072 0.5826 -0.0377
0.0318 -0.4188 -0.0647
0.0415 -0.1057 -0.0847
0.0211 -0.6708 -0.0332
0.0285 -0.7109 -0.0188
0.0385 -0.8172 0.0215
-0.0314 0.8267 -0.0030
0.0488 -0.8716 0.0473
0.0324 -0.4094 -0.0655
0.0566 -0.8927 0.0578
0.0603 -0.9021 0.0625
0.0135 0.1171 -0.0727
0.0034 0.6953 -0.0269
0.0306 -0.7330 -0.0109
0.0186 -0.6531 -0.0387
0.0088 0.6604 -0.0321
0.0452 -0.1611 -0.0819
0.0401 -0.8847 0.0605
0.0273 -0.7036 -0.0214
0.0186 -0.6522 -0.0389
-0.0374 0.8423 0.0004
0.0062 0.2500 -0.0601
0.0083 0.1614 -0.0659
0.0180 -0.6419 -0.0412
0.0339 -0.7787 0.0058
0.0409 -0.0983 -0.0848
0.0482 -0.8674 0.0449
0.0462 -0.8753 0.0510
0.0404 -0.8840 0.0599
0.0535 -0.8840 0.0534
-0.0306 0.8244 -0.0034
0.0416 -0.1078 -0.0846
0.0193 -0.6584 -0.0371
0.0045 0.3578 -0.0530
0.0083 0.6236 -0.0350
0.0314 -0.7453 -0.0065
0.0057 0.5196 -0.0421
0.0258 0.0332 -0.0821
0.0421 -0.1141 -0.0845
0.0428 -0.1229 -0.0842
0.0444 -0.1462 -0.0829
0.0455 -0.1719 -0.0812
0.0279 -0.4826 -0.0588
0.0045 0.3630 -0.0527
0.0334 -0.0240 -0.0848
0.0366 -0.0526 -0.0851
0.0433 -0.1297 -0.0839
0.0347 -0.0358 -0.0850
0.0400 -0.8263 0.0255
0.0352 -0.9004 0.0736
0.0470 -0.8675 0.0456
-0.0273 0.8154 -0.0053
0.0241 0.0453 -0.0812
0.0349 -0.0373 -0.0850
0.0447 -0.2015 -0.0794
0.0328 -0.7662 0.0011
0.0254 -0.6927 -0.0254
0.0455 -0.1719 -0.0812
0.0044 0.4258 -0.0485
0.0073 0.6721 -0.0305
0.0422 -0.2414 -0.0771
-0.0308 0.8251 -0.0033
0.0174 0.0912 -0.0765
0.0201 0.0726 -0.0787
0.0309 -0.7357 -0.0099
0.0258 -0.5161 -0.0553
-0.0475 0.8670 0.0059
0.0282 -0.7090 -0.0194
0.0054 0.2939 -0.0573
0.0268 -0.5003 -0.0570
0.0142 0.1126 -0.0735
0.0293 0.0081 -0.0837
-0.0026 0.7234 -0.0222
0.0154 0.1046 -0.0747
0.0385 -0.3073 -0.0730
0.0066 0.6765 -0.0299
0.0196 -0.6610 -0.0364
0.0083 0.6643 -0.0316
-0.0009 0.7157 -0.0235
-0.0259 0.8111 -0.0062
0.0390 -0.0761 -0.0850
0.0585 -0.9056 0.0658
-0.0149 0.7727 -0.0134
0.0082 0.6652 -0.0315
0.0444 -0.2042 -0.0793
0.0381 -0.3140 -0.0725
0.0387 -0.8184 0.0220
-0.0015 0.7188 -0.0230
0.0280 -0.7078 -0.0199
-0.0202 0.7916 -0.0099
0.0089 0.6590 -0.0323
0.0044 0.4241 -0.0486
-0.0226 0.8003 -0.0083
0.0085 0.1591 -0.0662
0.0057 0.2789 -0.0583
0.0277 0.0200 -0.0830
0.0256 -0.6942 -0.0249
0.0330 -0.4003 -0.0662
0.0358 -0.8982 0.0718
0.0185 -0.6275 -0.0433
0.0036 0.6940 -0.0271
0.0046 0.4493 -0.0469
0.0450 -0.1567 -0.0822
0.0395 -0.0824 -0.0850
0.0291 0.0090 -0.0836
0.0389 -0.0751 -0.0850
0.0382 -0.8150 0.0206
0.0394 -0.2904 -0.0741
0.0045 0.3607 -0.0528
0.0312 -0.0071 -0.0843
0.0427 -0.1217 -0.0842
0.0309 -0.4347 -0.0633
0.0409 -0.8315 0.0279
0.0094 0.6431 -0.0339
0.0291 -0.7152 -0.0172
0.0342 -0.7827 0.0074
0.0312 -0.7417 -0.0078
0.0079 0.1711 -0.0652
0.0325 -0.0168 -0.0846
0.0185 -0.6515 -0.0391
0.0271 -0.4949 -0.0575
0.0423 -0.1166 -0.0844
0.0043 0.3903 -0.0509
0.0045 0.6892 -0.0279
0.0350 -0.9006 0.0739
0.0086 0.1579 -0.0664
0.0444 -0.1458 -0.0829
0.0093 0.6554 -0.0328
0.0439 -0.1383 -0.0834
-0.0058 0.7369 -0.0198
0.0364 -0.9034 0.0752
0.0117 0.1299 -0.0706
0.0304 -0.7285 -0.0124
0.0188 -0.6538 -0.0384
0.0364 -0.3420 -0.0706
0.0297 -0.7215 -0.0149
-0.0027 0.7239 -0.0221
0.0364 -0.8024 0.0153
-0.0309 0.8253 -0.0033
0.0454 -0.1690 -0.0814
0.0475 -0.8708 0.0475
0.0287 -0.7126 -0.0181
0.0234 -0.6829 -0.0290
0.0493 -0.8757 0.0498
0.0295 -0.7196 -0.0156
0.0345 -0.7859 0.0086
0.0366 -0.9020 0.0741
0.0262 -0.6969 -0.0239
0.0564 -0.9071 0.0679
0.0160 0.1005 -0.0753
0.0356 -0.7958 0.0125
0.0050 0.3143 -0.0559
0.0427 -0.1208 -0.0843
0.0482 -0.8671 0.0448
0.0093 0.6555 -0.0328
0.0452 -0.8545 0.0387
0.0253 0.0368 -0.0819
0.0156 0.1027 -0.0750
0.0354 -0.0418 -0.0851
0.0048 0.4625 -0.0460
0.0341 -0.7808 0.0066
0.0294 -0.7190 -0.0158
0.0096 0.1469 -0.0678
-0.0394 0.8472 0.0015
-0.0151 0.7734 -0.0133
0.0227 -0.5647 -0.0501
0.0454 -0.1679 -0.0814
0.0344 -0.7850 0.0082
0.0237 -0.6850 -0.0283
0.0139 0.1144 -0.0732
0.0087 0.1549 -0.0667
0.0589 -0.8981 0.0604
0.0091 0.6343 -0.0345
0.0376 -0.8111 0.0189
0.0250 -0.6911 -0.0260
-0.0105 0.7559 -0.0165
0.0189 -0.6555 -0.0380
0.0010 0.7072 -0.0250
0.0064 0.2415 -0.0607
0.0435 -0.1333 -0.0837
0.0236 -0.6842 -0.0286
-0.0140 0.7691 -0.0140
0.0048 0.6876 -0.0282
0.0404 -0.2749 -0.0750
0.0274 -0.7041 -0.0212
0.0394 -0.0808 -0.0850
0.0281 -0.7082 -0.0197
0.0409 -0.8316 0.0279
0.0282 -0.4767 -0.0594
0.0590 -0.9050 0.0652
-0.0437 0.8579 0.0039
0.0243 0.0442 -0.0813
0.0447 -0.2010 -0.0794
0.0206 0.0694 -0.0790
0.0286 -0.7120 -0.0183
0.0454 -0.1695 -0.0813
-0.0068 0.7412 -0.0191
0.0362 -0.8012 0.0147
0.0325 -0.7619 -0.0005
0.0333 -0.0236 -0.0848
0.0371 -0.8075 0.0174
0.0344 -0.3768 -0.0681
0.0364 -0.9039 0.0755
-0.0193 0.7887 -0.0104
0.0461 -0.8596 0.0412
0.0277 -0.4860 -0.0584
0.0372 -0.8935 0.0679
0.0380 -0.8137 0.0200
0.0434 -0.1318 -0.0838
0.0296 -0.4557 -0.0614
0.0597 -0.9041 0.0642
0.0421 -0.1143 -0.0845
0.0091 0.6570 -0.0326
-0.0255 0.8097 -0.0064
0.0047 0.3370 -0.0544
0.0191 -0.6206 -0.0439
0.0050 0.4763 -0.0450
0.0124 0.1254 -0.0713
0.0350 -0.0377 -0.0850
0.0095 0.6490 -0.0334
0.0360 -0.0469 -0.0851
0.0532 -0.8831 0.0529
0.0328 -0.0193 -0.0847
0.0348 -0.7888 0.0098
0.0044 0.3804 -0.0515
0.0420 -0.1128 -0.0845
0.0022 0.7014 -0.0259
0.0084 0.6633 -0.0317
0.0397 -0.0849 -0.0850
0.0488 -0.8706 0.0467
0.0173 0.0916 -0.0765
-0.0257 0.8105 -0.0063
0.0398 -0.8250 0.0250
0.0454 -0.1683 -0.0814
0.0153 0.1049 -0.0746
0.0425 -0.8813 0.0570
0.0385 -0.3059 -0.0731
0.0061 0.2586 -0.0596
0.0234 -0.6832 -0.0289
0.0288 -0.4685 -0.0602
0.0450 -0.8576 0.0405
0.0057 0.2752 -0.0585
0.0259 -0.6959 -0.0242
0.0122 0.1268 -0.0711
0.0268 -0.7002 -0.0226
0.0210 0.0668 -0.0793
0.0057 0.6824 -0.0290
0.0603 -0.9011 0.0618
0.0385 -0.8172 0.0215
0.0230 0.0531 -0.0805
-0.0419 0.8535 0.0029
0.0245 0.0429 -0.0814
0.0390 -0.8201 0.0228
0.0437 -0.8468 0.0350
0.0205 0.0702 -0.0789
0.0027 0.6990 -0.0263
0.0047 0.3384 -0.0543
0.0394 -0.9061 0.0756
0.0083 0.1609 -0.0660
0.0104 0.1408 -0.0688
0.0427 -0.1221 -0.0842
0.0272 -0.4940 -0.0576
0.0395 -0.0824 -0.0850
0.0451 -0.1591 -0.0820
0.0321 -0.0137 -0.0846
0.0044 0.4263 -0.0484
0.0353 -0.3616 -0.0692
-0.0361 0.8389 -0.0003
0.0355 -0.9022 0.0747
0.0391 -0.0780 -0.0850
0.0050 0.3131 -0.0560
0.0573 -0.9066 0.0671
0.0252 -0.6920 -0.0257
-0.0313 0.8263 -0.0030
0.0311 -0.7391 -0.0087
0.0441 -0.2071 -0.0791
0.0440 -0.1398 -0.0833
0.0475 -0.8734 0.0491
0.0048 0.3265 -0.0551
0.0047 0.4536 -0.0466
0.0319 -0.7525 -0.0039
0.0287 -0.7125 -0.0181
0.0420 -0.2456 -0.0768
0.0431 -0.8435 0.0334
0.0054 0.5054 -0.0430
0.0418 -0.1094 -0.0846
-0.0307 0.8247 -0.0034
0.0412 -0.1023 -0.0847
0.0285 -0.7111 -0.0187
0.0030 0.6973 -0.0266
0.0151 0.1064 -0.0744
0.0230 -0.6808 -0.0298
-0.0267 0.8136 -0.0057
0.0311 -0.7390 -0.0087
0.0452 -0.1896 -0.0801
0.0449 -0.1546 -0.0823
0.0089 0.6596 -0.0322
0.0487 -0.8696 0.0462
0.0438 -0.1377 -0.0835
0.0393 -0.8868 0.0623
0.0378 -0.3190 -0.0722
0.0241 -0.6869 -0.0276
0.0455 -0.1760 -0.0809
0.0401 -0.0892 -0.0849
-0.0166 0.7789 -0.0123
0.0350 -0.9006 0.0739
0.0599 -0.9042 0.0642
0.0319 -0.7527 -0.0038
0.0371 -0.0572 -0.0851
0.0342 -0.0315 -0.0849
0.0466 -0.8628 0.0429
0.0488 -0.8734 0.0485
-0.0319 0.8281 -0.0027
-0.0117 0.7605 -0.0156
0.0148 0.1084 -0.0741
-0.0014 0.7184 -0.0231
0.0179 0.0876 -0.0770
0.0428 -0.1228 -0.0842
0.0488 -0.8720 0.0476
0.0312 -0.0071 -0.0843
0.0237 -0.6848 -0.0284
0.0256 0.0347 -0.0820
0.0267 0.0269 -0.0826
0.0467 -0.8626 0.0427
0.0123 0.1261 -0.0712
-0.0381 0.8438 0.0008
0.0474 -0.8646 0.0436
0.0452 -0.1607 -0.0819
0.0294 -0.7182 -0.0161
0.0365 -0.9038 0.0754
0.0453 -0.1874 -0.0802
0.0059 0.5269 -0.0416
0.0169 0.0945 -0.0761
0.0391 -0.8209 0.0231
0.0385 -0.3064 -0.0730
0.0369 -0.9023 0.0741
-0.0379 0.8434 0.0007
0.0472 -0.8703 0.0473
0.0431 -0.1276 -0.0840
0.0280 -0.4806 -0.0590
0.0314 -0.7443 -0.0069
-0.0361 0.8391 -0.0003
0.0138 0.1155 -0.0730
0.0283 0.0152 -0.0833
0.0208 -0.6686 -0.0340
0.0090 0.6583 -0.0324
0.0378 -0.8126 0.0195
0.0237 -0.5479 -0.0519
0.0057 0.5171 -0.0422
0.0064 0.2446 -0.0605
0.0282 -0.7093 -0.0193
-0.0243 0.8060 -0.0072
0.0245 0.0429 -0.0814
0.0012 0.7062 -0.0251
0.0249 -0.6906 -0.0262
0.0095 0.1481 -0.0677
0.0018 0.7035 -0.0256
0.0449 -0.1547 -0.0823
0.0083 0.1614 -0.0659
0.0347 -0.7877 0.0093
0.0409 -0.8317 0.0279
0.0358 -0.7975 0.0132
0.0403 -0.0916 -0.0849
0.0367 -0.8047 0.0162
0.0276 0.0202 -0.0830
0.0504 -0.8774 0.0504
0.0335 -0.7741 0.0041
0.0452 -0.1634 -0.0817
0.0152 0.1059 -0.0745
0.0282 -0.4771 -0.0593
0.0219 0.0609 -0.0798
0.0437 -0.8467 0.0349
0.0286 -0.7115 -0.0185
0.0441 -0.2073 -0.0791
0.0053 0.4972 -0.0436
0.0103 0.1414 -0.0687
0.0266 -0.6997 -0.0228
0.0475 -0.8693 0.0465
0.0379 -0.8127 0.0196
0.0037 0.6935 -0.0272
-0.0065 0.7401 -0.0193
0.0377 -0.8922 0.0668
0.0369 -0.8058 0.0167
0.0277 -0.7056 -0.0207
-0.0420 0.8538 0.0029
0.0335 -0.0252 -0.0848
0.0058 0.5227 -0.0419
0.0169 0.0942 -0.0761
0.0446 -0.1502 -0.0826
0.0297 0.0051 -0.0838
-0.0248 0.8074 -0.0069
0.0299 -0.7232 -0.0143
0.0193 -0.6585 -0.0371
0.0352 -0.7924 0.0112
0.0065 0.5497 -0.0400
-0.0122 0.7626 -0.0152
0.0430 -0.8440 0.0337
0.0328 -0.7653 0.0008
0.0156 0.1030 -0.0749
0.0173 0.0916 -0.0765
0.0090 0.1524 -0.0671
0.0066 0.5558 -0.0396
0.0113 0.1332 -0.0700
0.0085 0.1582 -0.0663
0.0170 0.0938 -0.0762
0.0455 -0.1774 -0.0808
0.0280 0.0174 -0.0832
0.0281 0.0165 -0.0832
-0.0306 0.8246 -0.0034
0.0388 -0.0743 -0.0850
0.0357 -0.7963 0.0128
0.0229 0.0541 -0.0805
0.0402 -0.0902 -0.0849
0.0447 -0.1519 -0.0825
0.0357 -0.8986 0.0722
0.0034 0.6954 -0.0269
0.0374 -0.0599 -0.0851
-0.0203 0.7922 -0.0098
0.0299 0.0034 -0.0839
0.0376 -0.8107 0.0188
0.0321 -0.7556 -0.0028
0.0378 -0.0642 -0.0851
0.0340 -0.7804 0.0065
0.0321 -0.4145 -0.0650
0.0452 -0.1624 -0.0818
0.0394 -0.8230 0.0240
0.0235 -0.6838 -0.0287
0.0605 -0.9026 0.0627
0.0493 -0.8736 0.0484
0.0435 -0.1321 -0.0838
0.0377 -0.0630 -0.0851
0.0255 -0.6937 -0.0251
0.0256 -0.6941 -0.0249
0.0222 -0.6767 -0.0312
0.0109 0.1366 -0.0694
0.0185 -0.6525 -0.0388
0.0601 -0.9002 0.0613
0.0217 -0.5901 -0.0466
-0.0128 0.7646 -0.0149
0.0430 -0.1251 -0.0841
0.0390 -0.2987 -0.0735
0.0605 -0.9007 0.0614
0.0347 -0.3712 -0.0685
0.0107 0.1379 -0.0692
0.0284 0.0144 -0.0834
-0.0026 0.7235 -0.0222
0.0371 -0.8072 0.0173
-0.0348 0.8356 -0.0010
0.0194 -0.6594 -0.0368
0.0047 0.3345 -0.0546
0.0405 -0.0942 -0.0848
0.0294 0.0070 -0.0837
0.0195 0.0767 -0.0782
-0.0313 0.8264 -0.0030
0.0049 0.3204 -0.0555
0.0124 0.1249 -0.0714
0.0309 -0.7368 -0.0095
0.0277 -0.7056 -0.0207
0.0213 0.0650 -0.0794
0.0329 -0.7668 0.0013
0.0226 -0.5665 -0.0498
0.0207 -0.6683 -0.0341
0.0425 -0.8407 0.0320
0.0061 0.6796 -0.0294
0.0377 -0.3205 -0.0721
0.0270 -0.7018 -0.0221
0.0345 -0.0334 -0.0850
0.0298 0.0043 -0.0839
-0.0054 0.7354 -0.0201
0.0073 0.2142 -0.0627
0.0447 -0.8517 0.0373
0.0215 0.0637 -0.0796
0.0418 -0.1102 -0.0846
0.0088 0.6601 -0.0322
0.0257 0.0341 -0.0821
0.0400 -0.0883 -0.0849
0.0080 0.6669 -0.0312
0.0293 -0.4601 -0.0610
0.0416 -0.8357 0.0297
0.0604 -0.9012 0.0618
0.0178 -0.6357 -0.0425
0.0125 0.1240 -0.0716
0.0356 -0.7960 0.0127
-0.0012 0.7173 -0.0232
0.0077 0.6692 -0.0309
0.0364 -0.0505 -0.0851
0.0348 -0.7886 0.0097
0.0365 -0.3416 -0.0707
0.0092 0.1507 -0.0672
-0.0281 0.8174 -0.0049
0.0453 -0.8573 0.0403
-0.0443 0.8594 0.0042
0.0348 -0.0366 -0.0850
0.0340 -0.0294 -0.0849
0.0372 -0.8079 0.0175
0.0392 -0.8214 0.0233
0.0455 -0.1775 -0.0808
0.0455 -0.1815 -0.0805
-0.0431 0.8565 0.0035
0.0299 -0.4509 -0.0618
0.0388 -0.3007 -0.0734
0.0445 -0.9031 0.0710
0.0181 -0.6454 -0.0405
0.0104 0.1402 -0.0689
0.0047 0.4579 -0.0463
0.0284 0.0145 -0.0834
0.0087 0.6608 -0.0321
0.0047 0.3396 -0.0542
0.0342 -0.0308 -0.0849
0.0329 -0.0203 -0.0847
0.0453 -0.1650 -0.0816
0.0090 0.6587 -0.0324
-0.0050 0.7335 -0.0204
0.0140 0.1136 -0.0733
0.0482 -0.8720 0.0479
0.0325 -0.7616 -0.0006
0.0518 -0.8794 0.0511
-0.0190 0.7875 -0.0107
0.0433 -0.8461 0.0347
0.0144 0.1114 -0.0736
0.0308 -0.7355 -0.0100
0.0404 -0.8287 0.0266
0.0476 -0.8691 0.0463
0.0228 0.0547 -0.0804
0.0153 0.1049 -0.0746
-0.0357 0.8378 -0.0006
0.0072 0.5912 -0.0371
0.0472 -0.8643 0.0435
0.0193 -0.6587 -0.0370
0.0070 0.6743 -0.0302
0.0364 -0.9039 0.0755
0.0179 0.0874 -0.0770
0.0077 0.6691 -0.0309
0.0287 0.0122 -0.0835
-0.0145 0.7713 -0.0136
0.0096 0.1473 -0.0678
0.0431 -0.1274 -0.0840
0.0444 -0.2044 -0.0793
0.0379 -0.3177 -0.0723
0.0415 -0.2541 -0.0763
0.0182 -0.6286 -0.0433
0.0088 0.6597 -0.0322
0.0288 -0.4679 -0.0602
0.0195 0.0768 -0.0782
0.0274 0.0217 -0.0829
0.0392 -0.0785 -0.0850
0.0259 0.0326 -0.0822
0.0378 -0.8127 0.0196
0.0362 -0.0486 -0.0851
0.0597 -0.8992 0.0608
-0.0349 0.8359 -0.0010
0.0093 0.6520 -0.0331
0.0389 -0.8194 0.0225
0.0111 0.1349 -0.0697
0.0444 -0.2031 -0.0793
0.0339 -0.0289 -0.0849
0.0045 0.4396 -0.0475
0.0308 -0.0040 -0.0842
0.0076 0.6698 -0.0308
0.0397 -0.0845 -0.0850
0.0052 0.6856 -0.0285
0.0372 -0.8084 0.0178
0.0293 -0.7177 -0.0163
0.0333 -0.3939 -0.0667
0.0452 -0.8723 0.0497
0.0330 -0.7682 0.0018
0.0246 -0.6894 -0.0267
0.0058 0.2734 -0.0586
0.0605 -0.9023 0.0625
0.0062 0.2527 -0.0600
0.0073 0.6722 -0.0305
0.0542 -0.9020 0.0654
0.0269 -0.7010 -0.0223
0.0288 -0.4679 -0.0602
0.0469 -0.8736 0.0496
0.0451 -0.1951 -0.0797
0.0448 -0.1538 -0.0824
-0.0437 0.8580 0.0039
-0.0340 0.8335 -0.0015
0.0350 -0.3666 -0.0688
0.0295 -0.4569 -0.0613
0.0309 -0.4345 -0.0633
0.0178 -0.6363 -0.0424
0.0252 -0.5253 -0.0543
0.0067 0.6763 -0.0299
0.0368 -0.0547 -0.0851
-0.0214 0.7961 -0.0091
0.0450 -0.1573 -0.0822
0.0248 -0.5317 -0.0536
0.0107 0.1378 -0.0693
0.0257 -0.5178 -0.0551
0.0221 0.0593 -0.0800
-0.0115 0.7598 -0.0157
0.0111 0.1344 -0.0698
0.0483 -0.8711 0.0472
0.0448 -0.8523 0.0376
0.0094 0.6395 -0.0342
0.0370 -0.0564 -0.0851
0.0086 0.6619 -0.0319
0.0586 -0.9058 0.0659
0.0310 -0.0053 -0.0843
0.0258 -0.5164 -0.0552
0.0352 -0.0402 -0.0850
0.0184 -0.6510 -0.0392
0.0056 0.2857 -0.0578
0.0257 0.0338 -0.0821
0.0194 -0.6587 -0.0370
0.0355 -0.9022 0.0748
0.0444 -0.1456 -0.0830
0.0281 -0.7084 -0.0196
0.0441 -0.2073 -0.0791
0.0331 -0.7700 0.0025
0.0595 -0.9050 0.0649
0.0455 -0.1790 -0.0807
0.0288 0.0114 -0.0835
0.0341 -0.3810 -0.0677
0.0363 -0.9039 0.0755
0.0230 -0.5593 -0.0507
0.0435 -0.8460 0.0346
0.0221 -0.5751 -0.0488
0.0086 0.6615 -0.0320
0.0391 -0.8208 0.0231
0.0382 -0.0684 -0.0851
-0.0112 0.7589 -0.0159
0.0171 0.0932 -0.0763
-0.0105 0.7560 -0.0164
0.0392 -0.8872 0.0626
0.0471 -0.8639 0.0434
0.0110 0.1351 -0.0697
-0.0438 0.8583 0.0040
0.0316 -0.4225 -0.0644
0.0457 -0.8730 0.0498
0.0053 0.4986 -0.0435
0.0408 -0.0974 -0.0848
0.0331 -0.3975 -0.0664
-0.0200 0.7910 -0.0100
0.0327 -0.7637 0.0002
0.0087 0.1552 -0.0667
-0.0207 0.7937 -0.0095
0.0331 -0.0221 -0.0848
0.0146 0.1096 -0.0739
0.0064 0.2426 -0.0606
0.0075 0.6702 -0.0308
0.0564 -0.9049 0.0664
0.0402 -0.8273 0.0260
0.0432 -0.1289 -0.0839
0.0222 -0.5747 -0.0488
0.0361 -0.0479 -0.0851
0.0221 -0.5764 -0.0486
0.0377 -0.9046 0.0753
-0.0171 0.7808 -0.0119
0.0354 -0.9019 0.0746
0.0156 0.1026 -0.0750
0.0318 -0.0116 -0.0845
0.0605 -0.9017 0.0622
0.0322 -0.7576 -0.0021
0.0045 0.3542 -0.0533
-0.0145 0.7713 -0.0136
0.0318 -0.7510 -0.0044
0.0353 -0.9004 0.0736
0.0205 -0.6672 -0.0344
0.0482 -0.8673 0.0449
0.0442 -0.1438 -0.0831
0.0434 -0.1311 -0.0838
0.0297 0.0045 -0.0839
0.0326 -0.0178 -0.0847
0.0431 -0.8811 0.0565
0.0298 -0.7230 -0.0144
0.0476 -0.8656 0.0441
0.0289 -0.7141 -0.0176
-0.0105 0.7561 -0.0164
0.0415 -0.1066 -0.0846
0.0417 -0.8365 0.0302
0.0047 0.3319 -0.0547
0.0381 -0.9054 0.0757
0.0229 0.0541 -0.0805
0.0340 -0.7807 0.0066
0.0384 -0.8162 0.0211
0.0423 -0.1164 -0.0844
0.0264 -0.6985 -0.0233
0.0102 0.1419 -0.0686
0.0411 -0.8327 0.0284
0.0358 -0.0452 -0.0851
0.0396 -0.0828 -0.0850
0.0355 -0.9012 0.0740
0.0354 -0.7944 0.0120
0.0043 0.3842 -0.0513
0.0057 0.5190 -0.0421
0.0056 0.5136 -0.0425
0.0448 -0.8525 0.0377
0.0490 -0.8741 0.0489
0.0249 0.0399 -0.0816
0.0018 0.7035 -0.0256
0.0409 -0.2659 -0.0756
0.0309 -0.7367 -0.0096
0.0098 0.1454 -0.0681
0.0375 -0.0609 -0.0851
-0.0252 0.8089 -0.0066
-0.0378 0.8431 0.0006
0.0425 -0.1191 -0.0843
0.0459 -0.8630 0.0433
0.0050 0.3150 -0.0559
0.0391 -0.0782 -0.0850
0.0184 0.0843 -0.0774
0.0303 -0.4445 -0.0624
0.0416 -0.8777 0.0551
0.0313 -0.7426 -0.0075
0.0086 0.6619 -0.0319
0.0112 0.1344 -0.0698
-0.0431 0.8565 0.0036
-0.0130 0.7656 -0.0147
-0.0078 0.7452 -0.0184
0.0272 -0.7030 -0.0216
0.0360 -0.7987 0.0137
0.0390 -0.0770 -0.0850
0.0129 0.1215 -0.0720
0.0301 0.0018 -0.0840
0.0272 -0.7030 -0.0216
0.0388 -0.8192 0.0224
0.0401 -0.2796 -0.0747
0.0372 -0.8937 0.0681
-0.0315 0.8269 -0.0029
0.0380 -0.0660 -0.0851
0.0091 0.1510 -0.0672
0.0351 -0.0390 -0.0850
0.0068 0.5998 -0.0362
0.0045 0.3526 -0.0534
0.0089 0.6594 -0.0323
0.0335 -0.0256 -0.0848
0.0311 -0.0058 -0.0843
0.0087 0.1549 -0.0667
0.0251 -0.5275 -0.0540
0.0071 0.5777 -0.0381
0.0435 -0.1323 -0.0837
0.0488 -0.8730 0.0483
0.0364 -0.8022 0.0152
0.0399 -0.8260 0.0254
0.0073 0.6163 -0.0352
0.0319 -0.7522 -0.0040
0.0012 0.7062 -0.0251
0.0418 -0.1092 -0.0846
0.0151 0.1063 -0.0744
0.0063 0.6784 -0.0296
0.0336 -0.0260 -0.0849
0.0292 0.0087 -0.0837
0.0271 -0.7018 -0.0220
0.0272 -0.7030 -0.0216
0.0188 0.0819 -0.0776
-0.0288 0.8194 -0.0045
0.0043 0.3860 -0.0511
0.0252 -0.6922 -0.0256
0.0047 0.3318 -0.0547
0.0503 -0.8779 0.0508
0.0106 0.1387 -0.0691
0.0463 -0.8627 0.0429
0.0071 0.2180 -0.0624
0.0163 0.0984 -0.0756
0.0236 0.0489 -0.0809
0.0079 0.6673 -0.0312
0.0392 -0.2938 -0.0738
0.0183 -0.6477 -0.0399
0.0210 -0.6699 -0.0335
0.0453 -0.1850 -0.0803
0.0391 -0.9059 0.0756
0.0364 -0.3433 -0.0705
0.0368 -0.8947 0.0689
0.0448 -0.1530 -0.0824
-0.0277 0.8164 -0.0051
0.0349 -0.0369 -0.0850
0.0174 0.0911 -0.0765
0.0408 -0.0975 -0.0848
0.0008 0.7080 -0.0248
0.0450 -0.1952 -0.0797
0.0427 -0.1210 -0.0843
0.0338 -0.0277 -0.0849
0.0049 0.3211 -0.0555
0.0096 0.6455 -0.0338
0.0050 0.3141 -0.0559
0.0086 0.6622 -0.0319
0.0180 -0.6416 -0.0412
0.0317 -0.7488 -0.0053
-0.0378 0.8431 0.0006
0.0207 -0.6685 -0.0340
0.0338 -0.7784 0.0057
0.0352 -0.0398 -0.0850
0.0400 -0.0883 -0.0849
0.0216 -0.5929 -0.0463
0.0094 0.6505 -0.0332
-0.0216 0.7970 -0.0089
0.0127 0.1231 -0.0717
0.0312 -0.0068 -0.0843
0.0430 -0.1261 -0.0840
-0.0261 0.8117 -0.0060
-0.0323 0.8290 -0.0025
0.0556 -0.9026 0.0651
0.0188 -0.6550 -0.0381
0.0248 0.0404 -0.0816
0.0427 -0.1218 -0.0842
0.0454 -0.8683 0.0470
0.0359 -0.9012 0.0738
-0.0233 0.8027 -0.0078
0.0432 -0.1279 -0.0840
0.0356 -0.7960 0.0126
0.0454 -0.1676 -0.0815
0.0472 -0.8671 0.0452
0.0165 0.0966 -0.0758
0.0211 -0.6704 -0.0334
0.0415 -0.1063 -0.0846
-0.0130 0.7656 -0.0147
0.0294 -0.7188 -0.0159
0.0251 0.0382 -0.0818
0.0417 -0.8782 0.0554
0.0332 -0.7703 0.0026
0.0454 -0.1681 -0.0814
0.0455 -0.1724 -0.0811
0.0151 0.1062 -0.0744
0.0418 -0.1104 -0.0846
0.0132 0.1195 -0.0723
0.0193 0.0781 -0.0781
0.0343 -0.7834 0.0076
0.0163 0.0980 -0.0756
0.0359 -0.9029 0.0751
0.0082 0.1628 -0.0658
0.0111 0.1347 -0.0698
0.0083 0.1613 -0.0660
0.0453 -0.1893 -0.0801
-0.0100 0.7539 -0.0168
0.0306 -0.7333 -0.0108
0.0530 -0.8814 0.0519
-0.0308 0.8250 -0.0033
0.0228 -0.5628 -0.0503
-0.0286 0.8189 -0.0046
0.0442 -0.1435 -0.0831
0.0139 0.1143 -0.0732
0.0423 -0.1162 -0.0844
0.0354 -0.8997 0.0731
0.0298 0.0042 -0.0839
0.0254 0.0366 -0.0819
0.0455 -0.1711 -0.0812
0.0223 0.0577 -0.0801
0.0060 0.5283 -0.0415
-0.0198 0.7903 -0.0101
0.0311 -0.0059 -0.0843
0.0242 -0.5417 -0.0525
-0.0350 0.8360 -0.0010
0.0473 -0.8644 0.0435
0.0431 -0.1270 -0.0840
0.0099 0.1446 -0.0682
0.0046 0.4498 -0.0468
-0.0361 0.8389 -0.0003
-0.0285 0.8186 -0.0047
0.0600 -0.8998 0.0610
-0.0045 0.7316 -0.0208
0.0452 -0.8543 0.0386
0.0091 0.1511 -0.0672
0.0455 -0.1713 -0.0812
0.0265 -0.6987 -0.0232
0.0367 -0.3381 -0.0709
0.0280 0.0177 -0.0832
0.0507 -0.8789 0.0513
0.0269 -0.7010 -0.0224
0.0080 0.6667 -0.0313
0.0139 0.1142 -0.0732
-0.0123 0.7627 -0.0152
0.0438 -0.8479 0.0355
0.0060 0.2609 -0.0594
-0.0110 0.7579 -0.0161
0.0056 0.2813 -0.0581
0.0181 -0.6447 -0.0406
0.0432 -0.9077 0.0748
-0.0396 0.8479 0.0017
0.0481 -0.8709 0.0472
0.0045 0.4323 -0.0480
0.0172 0.0922 -0.0764
0.0367 -0.8043 0.0160
0.0352 -0.0399 -0.0850
-0.0375 0.8426 0.0005
0.0386 -0.0725 -0.0851
0.0409 -0.8317 0.0279
0.0363 -0.8013 0.0148
0.0408 -0.0978 -0.0848
0.0053 0.6847 -0.0286
0.0366 -0.8954 0.0695
0.0054 0.5057 -0.0430
0.0602 -0.9004 0.0613
0.0258 -0.5158 -0.0553
0.0325 -0.7614 -0.0007
0.0412 -0.2600 -0.0759
0.0390 -0.2982 -0.0736
0.0448 -0.1540 -0.0824
-0.0308 0.8250 -0.0033
0.0455 -0.8566 0.0398
0.0421 -0.8382 0.0309
0.0340 -0.3831 -0.0676
0.0131 0.1202 -0.0722
0.0081 0.6660 -0.0314
0.0046 0.4455 -0.0471
0.0101 0.1431 -0.0684
0.0204 -0.6663 -0.0347
0.0308 -0.0038 -0.0842
0.0352 -0.3635 -0.0691
0.0027 0.6988 -0.0264
0.0223 -0.6773 -0.0310
0.0290 -0.7147 -0.0174
0.0534 -0.9069 0.0693
0.0400 -0.2817 -0.0746
0.0214 -0.6726 -0.0326
0.0446 -0.1499 -0.0827
0.0343 -0.0322 -0.0850
0.0462 -0.8603 0.0416
0.0085 0.6268 -0.0348
0.0039 0.6928 -0.0273
-0.0492 0.8723 0.0070
0.0451 -0.8540 0.0384
0.0083 0.6644 -0.0316
0.0322 -0.7571 -0.0023
0.0427 -0.1217 -0.0842
0.0110 0.1352 -0.0697
0.0287 -0.7127 -0.0181
0.0463 -0.8658 0.0449
0.0356 -0.8991 0.0725
0.0593 -0.9053 0.0652
0.0413 -0.2576 -0.0761
0.0438 -0.1365 -0.0835
0.0457 -0.8692 0.0473
0.0384 -0.0705 -0.0851
-0.0307 0.8247 -0.0034
0.0451 -0.1596 -0.0820
0.0339 -0.3853 -0.0674
0.0196 0.0765 -0.0782
0.0182 -0.6440 -0.0407
0.0048 0.6875 -0.0282
-0.0013 0.7177 -0.0232
0.0313 -0.7436 -0.0071
0.0079 0.1731 -0.0651
0.0320 -0.7535 -0.0036
0.0275 -0.4881 -0.0582
0.0255 -0.6933 -0.0252
0.0361 -0.7996 0.0141
0.0186 -0.6528 -0.0388
0.0044 0.6900 -0.0278
-0.0236 0.8037 -0.0076
0.0063 0.2466 -0.0604
0.0049 0.4717 -0.0454
0.0006 0.7090 -0.0247
0.0532 -0.8835 0.0532
0.0202 -0.6145 -0.0440
0.0160 0.1002 -0.0753
0.0196 -0.6181 -0.0439
0.0089 0.6596 -0.0322
0.0058 0.5237 -0.0418
0.0292 -0.7160 -0.0169
0.0244 -0.5382 -0.0529
0.0237 -0.5493 -0.0517
0.0347 -0.7879 0.0094
-0.0003 0.7130 -0.0240
0.0390 -0.2973 -0.0736
0.0412 -0.8332 0.0286
0.0363 -0.0500 -0.0851
0.0400 -0.8265 0.0256
-0.0055 0.7360 -0.0200
0.0088 0.6603 -0.0322
0.0430 -0.2212 -0.0784
0.0282 -0.7091 -0.0194
0.0264 -0.6980 -0.0234
0.0297 0.0049 -0.0838
0.0263 0.0301 -0.0824
0.0392 -0.0792 -0.0850
0.0134 0.1181 -0.0725
0.0044 0.4147 -0.0492
-0.0399 0.8484 0.0018
0.0046 0.4482 -0.0470
0.0524 -0.9080 0.0705
0.0416 -0.1070 -0.0846
0.0449 -0.8764 0.0524
0.0296 -0.4546 -0.0615
0.0416 -0.8355 0.0297
0.0510 -0.8794 0.0514
0.0313 -0.0077 -0.0844
0.0081 0.1887 -0.0647
0.0390 -0.0769 -0.0850
0.0255 0.0353 -0.0820
-0.0113 0.7592 -0.0159
0.0065 0.5506 -0.0400
0.0293 -0.7173 -0.0164
0.0443 -0.1439 -0.0831
0.0089 0.1538 -0.0668
0.0295 -0.7190 -0.0158
-0.0219 0.7979 -0.0087
0.0044 0.3756 -0.0518
0.0351 -0.9000 0.0734
0.0060 0.6802 -0.0293
0.0214 0.0641 -0.0795
-0.0144 0.7708 -0.0137
0.0411 -0.2613 -0.0759
0.0329 -0.0201 -0.0847
0.0051 0.4859 -0.0444
0.0438 -0.1368 -0.0835
0.0560 -0.9073 0.0682
0.0436 -0.1343 -0.0836
0.0395 -0.0826 -0.0850
0.0438 -0.1377 -0.0835
0.0084 0.6264 -0.0349
0.0083 0.1610 -0.0660
-0.0257 0.8106 -0.0063
-0.0070 0.7422 -0.0189
0.0605 -0.9018 0.0622
0.0332 -0.3963 -0.0665
0.0084 0.6635 -0.0317
0.0281 0.0171 -0.0832
0.0446 -0.1491 -0.0827
-0.0311 0.8258 -0.0031
0.0082 0.6656 -0.0314
0.0071 0.6736 -0.0303
0.0083 0.1616 -0.0659
0.0365 -0.3409 -0.0707
0.0047 0.4578 -0.0463
-0.0356 0.8375 -0.0006
0.0595 -0.9050 0.0649
0.0190 -0.6556 -0.0379
0.0330 -0.7687 0.0020
0.0454 -0.1862 -0.0803
0.0400 -0.0872 -0.0849
0.0523 -0.8821 0.0526
0.0351 -0.9011 0.0742
0.0392 -0.8216 0.0235
-0.0114 0.7594 -0.0158
0.0272 0.0232 -0.0828
0.0326 -0.4061 -0.0657
0.0428 -0.8422 0.0328
0.0306 -0.0020 -0.0841
-0.0310 0.8257 -0.0032
0.0202 -0.6651 -0.0351
0.0484 -0.8679 0.0452
0.0437 -0.1360 -0.0836
0.0363 -0.0495 -0.0851
0.0064 0.5461 -0.0403
0.0405 -0.8293 0.0269
0.0373 -0.0589 -0.0851
0.0341 -0.7816 0.0069
-0.0391 0.8465 0.0014
-0.0405 0.8501 0.0021
0.0442 -0.1437 -0.0831
0.0356 -0.8991 0.0725
0.0280 -0.4804 -0.0590
0.0404 -0.2744 -0.0751
0.0064 0.2429 -0.0606
0.0382 -0.0680 -0.0851
0.0604 -0.9037 0.0635
0.0429 -0.1248 -0.0841
0.0309 -0.4348 -0.0633
0.0505 -0.8770 0.0501
0.0331 -0.7693 0.0022
0.0418 -0.9072 0.0752
0.0283 -0.4764 -0.0594
0.0047 0.4575 -0.0463
-0.0251 0.8087 -0.0066
0.0148 0.1087 -0.0741
0.0317 -0.7499 -0.0049
0.0155 0.1036 -0.0748
0.0303 -0.7279 -0.0127
0.0247 -0.6896 -0.0265
0.0192 -0.6198 -0.0440
0.0107 0.1378 -0.0693
0.0182 -0.6483 -0.0399
0.0426 -0.1203 -0.0843
0.0342 -0.3793 -0.0679
-0.0458 0.8630 0.0050
0.0086 0.6617 -0.0320
0.0145 0.1106 -0.0738
0.0314 -0.7450 -0.0066
0.0044 0.4122 -0.0494
0.0399 -0.0870 -0.0849
0.0045 0.3566 -0.0531
0.0336 -0.7757 0.0047
0.0360 -0.7991 0.0139
0.0144 0.1112 -0.0737
0.0421 -0.1135 -0.0845
0.0199 -0.6628 -0.0358
0.0377 -0.0629 -0.0851
0.0422 -0.1155 -0.0844
0.0125 0.1240 -0.0716
0.0160 0.1002 -0.0753
0.0298 0.0043 -0.0839
0.0459 -0.8587 0.0408
0.0044 0.3699 -0.0522
0.0433 -0.1291 -0.0839
0.0516 -0.9095 0.0719
0.0023 0.7010 -0.0260
-0.0035 0.7272 -0.0215
0.0054 0.6841 -0.0287
0.0385 -0.0716 -0.0851
0.0446 -0.8730 0.0504
0.0056 0.6828 -0.0289
0.0327 -0.7636 0.0001
0.0062 0.5400 -0.0407
0.0319 -0.4175 -0.0648
-0.0372 0.8416 0.0003
0.0007 0.7089 -0.0247
0.0280 -0.4811 -0.0589
0.0079 0.6677 -0.0311
0.0435 -0.1332 -0.0837
-0.0191 0.7879 -0.0106
0.0452 -0.1628 -0.0818
0.0394 -0.2912 -0.0740
0.0454 -0.1827 -0.0805
0.0423 -0.1166 -0.0844
-0.0361 0.8391 -0.0003
0.0487 -0.8730 0.0483
-0.0370 0.8411 0.0002
0.0366 -0.0524 -0.0851
0.0394 -0.2906 -0.0740
0.0494 -0.8768 0.0505
0.0437 -0.8468 0.0349
0.0158 0.1014 -0.0751
0.0044 0.4128 -0.0493
-0.0426 0.8553 0.0033
0.0339 -0.7790 0.0059
0.0397 -0.8247 0.0248
0.0207 0.0691 -0.0790
0.0347 -0.7880 0.0095
0.0181 -0.6451 -0.0405
-0.0328 0.8303 -0.0022
-0.0366 0.8403 -0.0000
0.0079 0.6677 -0.0311
0.0084 0.1603 -0.0661
0.0143 0.1114 -0.0736
0.0432 -0.1279 -0.0840
0.0048 0.3262 -0.0551
-0.0400 0.8488 0.0019
-0.0371 0.8416 0.0003
0.0353 -0.3609 -0.0693
0.0373 -0.3273 -0.0716
0.0327 -0.4039 -0.0659
0.0138 0.1149 -0.0731
0.0045 0.4345 -0.0479
0.0271 0.0240 -0.0828
0.0326 -0.7626 -0.0003
0.0455 -0.1714 -0.0812
0.0218 0.0614 -0.0798
0.0410 -0.1003 -0.0848
0.0277 -0.7059 -0.0205
0.0054 0.5055 -0.0430
0.0127 0.1231 -0.0717
-0.0012 0.7171 -0.0233
0.0292 0.0089 -0.0836
0.0607 -0.9020 0.0622
0.0455 -0.1762 -0.0809
0.0475 -0.8698 0.0468
0.0090 0.1529 -0.0670
0.0404 -0.0926 -0.0849
-0.0038 0.7285 -0.0213
0.0383 -0.3097 -0.0728
-0.0400 0.8489 0.0019
0.0033 0.6958 -0.0268
0.0304 -0.7286 -0.0124
0.0415 -0.1059 -0.0847
0.0217 -0.5937 -0.0461
0.0303 -0.7282 -0.0126
0.0411 -0.8329 0.0285
0.0207 0.0689 -0.0790
0.0552 -0.8860 0.0540
0.0206 -0.6679 -0.0342
0.0290 -0.4645 -0.0605
0.0322 -0.7564 -0.0025
0.0306 -0.0018 -0.0841
0.0044 0.3661 -0.0525
0.0167 0.0953 -0.0760
0.0199 -0.6628 -0.0358
-0.0228 0.8012 -0.0081
0.0215 -0.6006 -0.0451
0.0297 -0.7207 -0.0152
0.0059 0.5255 -0.0417
0.0476 -0.8688 0.0461
0.0446 -0.1496 -0.0827
0.0360 -0.0472 -0.0851
0.0138 0.1151 -0.0730
0.0424 -0.8397 0.0316
0.0453 -0.1632 -0.0817
0.0339 -0.0287 -0.0849
0.0362 -0.8958 0.0699
0.0375 -0.8927 0.0672
0.0045 0.3615 -0.0528
0.0430 -0.1262 -0.0840
0.0378 -0.8122 0.0194
0.0289 -0.4659 -0.0604
0.0142 0.1121 -0.0735
-0.0099 0.7534 -0.0169
0.0232 0.0515 -0.0807
0.0306 -0.7322 -0.0112
-0.0337 0.8327 -0.0017
0.0304 -0.7304 -0.0118
0.0371 -0.0570 -0.0851
0.0287 0.0122 -0.0835
0.0398 -0.2852 -0.0744
-0.0267 0.8134 -0.0057
0.0342 -0.3796 -0.0678
0.0404 -0.8290 0.0267
-0.0234 0.8032 -0.0077
0.0446 -0.1494 -0.0827
0.0079 0.1801 -0.0648
0.0450 -0.8540 0.0385
0.0056 0.2820 -0.0581
0.0304 -0.4421 -0.0626
0.0048 0.3283 -0.0550
0.0336 -0.0257 -0.0848
0.0110 0.1355 -0.0696
0.0150 0.1073 -0.0743
0.0193 -0.6581 -0.0372
0.0272 0.0233 -0.0828
-0.0396 0.8479 0.0016
0.0043 0.3885 -0.0510
0.0190 -0.6565 -0.0377
0.0321 -0.7556 -0.0028
0.0327 -0.4051 -0.0658
0.0046 0.3475 -0.0537
0.0401 -0.0891 -0.0849
0.0085 0.1581 -0.0663
0.0060 0.6805 -0.0292
0.0031 0.6970 -0.0266
0.0456 -0.8592 0.0412
0.0289 -0.7136 -0.0178
-0.0127 0.7643 -0.0149
0.0286 -0.7116 -0.0185
0.0075 0.6707 -0.0307
0.0355 -0.3574 -0.0695
0.0214 -0.6722 -0.0328
0.0408 -0.2678 -0.0755
0.0087 0.6607 -0.0321
-0.0109 0.7577 -0.0161
0.0452 -0.1626 -0.0818
0.0390 -0.8205 0.0229
0.0123 0.1259 -0.0712
0.0187 -0.6536 -0.0385
0.0247 0.0415 -0.0815
0.0048 0.4675 -0.0456
0.0456 -0.1755 -0.0809
0.0453 -0.1644 -0.0817
0.0350 -0.9006 0.0739
0.0199 0.0745 -0.0785
0.0120 0.1279 -0.0709
0.0413 -0.1035 -0.0847
0.0437 -0.8782 0.0543
0.0478 -0.8656 0.0440
0.0250 0.0393 -0.0817
0.0356 -0.9027 0.0751
0.0127 0.1232 -0.0717
0.0284 -0.7104 -0.0189
0.0082 0.1908 -0.0647
0.0378 -0.8125 0.0195
0.0601 -0.9045 0.0642
0.0328 -0.4036 -0.0659
0.0347 -0.7878 0.0094
0.0397 -0.9063 0.0756
0.0261 -0.6965 -0.0240
0.0285 -0.4724 -0.0598
0.0305 -0.7301 -0.0119
0.0303 -0.4439 -0.0625
0.0434 -0.8457 0.0345
0.0447 -0.1510 -0.0826
-0.0248 0.8076 -0.0069
0.0335 -0.3920 -0.0669
0.0459 -0.8752 0.0512
0.0079 0.1735 -0.0650
0.0366 -0.8037 0.0158
0.0337 -0.0267 -0.0849
0.0456 -0.1736 -0.0811
0.0068 0.6004 -0.0361
-0.0108 0.7567 -0.0163
0.0304 -0.4414 -0.0627
0.0306 -0.7319 -0.0112
0.0344 -0.0326 -0.0850
0.0440 -0.8487 0.0359
0.0072 0.5923 -0.0370
0.0065 0.5500 -0.0400
0.0234 0.0505 -0.0808
0.0575 -0.9069 0.0672
0.0098 0.1455 -0.0680
0.0313 -0.4274 -0.0639
0.0046 0.4490 -0.0469
-0.0428 0.8558 0.0034
0.0100 0.1440 -0.0683
0.0295 -0.7196 -0.0156
0.0267 -0.5011 -0.0569
0.0347 -0.7879 0.0094
0.0286 -0.7119 -0.0184
0.0524 -0.9094 0.0715
-0.0233 0.8026 -0.0078
0.0354 -0.9018 0.0745
-0.0298 0.8224 -0.0039
0.0057 0.6822 -0.0290
0.0320 -0.0130 -0.0845
-0.0082 0.7471 -0.0180
0.0298 -0.4513 -0.0618
0.0279 -0.7071 -0.0201
0.0079 0.2031 -0.0638
0.0235 0.0498 -0.0808
0.0114 0.1327 -0.0701
-0.0287 0.8192 -0.0045
0.0136 0.1163 -0.0729
0.0210 0.0667 -0.0793
0.0320 -0.7538 -0.0035
0.0428 -0.2272 -0.0780
0.0346 -0.0347 -0.0850
0.0093 0.6556 -0.0328
0.0335 -0.7750 0.0044
0.0233 -0.6823 -0.0292
0.0527 -0.8813 0.0520
0.0155 0.1038 -0.0748
0.0043 0.3960 -0.0505
0.0301 0.0014 -0.0840
0.0334 -0.3929 -0.0668
0.0045 0.3611 -0.0528
0.0064 0.6779 -0.0296
0.0072 0.5889 -0.0372
-0.0332 0.8315 -0.0019
-0.0089 0.7498 -0.0175
0.0048 0.4680 -0.0456
0.0461 -0.8698 0.0475
0.0539 -0.8840 0.0533
0.0411 -0.1014 -0.0847
0.0298 -0.7227 -0.0145
0.0419 -0.8374 0.0306
0.0418 -0.8368 0.0303
0.0463 -0.8700 0.0475
0.0474 -0.8709 0.0475
0.0526 -0.9087 0.0709
0.0432 -0.9078 0.0749
0.0395 -0.2893 -0.0741
0.0311 -0.7396 -0.0085
-0.0002 0.7127 -0.0240
-0.0431 0.8565 0.0036
0.0597 -0.9052 0.0649
0.0198 0.0748 -0.0784
0.0138 0.1155 -0.0730
0.0368 -0.8051 0.0164
0.0054 0.5054 -0.0430
0.0344 -0.3764 -0.0681
-0.0457 0.8626 0.0049
0.0353 -0.9014 0.0743
0.0368 -0.8055 0.0165
0.0182 0.0859 -0.0772
0.0369 -0.8964 0.0700
0.0459 -0.8583 0.0406
0.0370 -0.0563 -0.0851
0.0178 -0.6353 -0.0426
0.0182 -0.6440 -0.0407
0.0091 0.6352 -0.0344
0.0287 0.0119 -0.0835
0.0360 -0.9011 0.0737
0.0044 0.4283 -0.0483
0.0452 -0.8576 0.0405
0.0357 -0.0442 -0.0851
0.0093 0.1492 -0.0675
0.0055 0.5080 -0.0429
-0.0321 0.8286 -0.0026
0.0252 -0.5253 -0.0543
-0.0369 0.8411 0.0001
0.0455 -0.8728 0.0498
0.0445 -0.1482 -0.0828
0.0444 -0.1460 -0.0829
0.0360 -0.0468 -0.0851
0.0134 0.1182 -0.0725
-0.0033 0.7267 -0.0216
0.0268 0.0262 -0.0826
0.0398 -0.2844 -0.0744
0.0291 -0.4626 -0.0607
0.0436 -0.8766 0.0533
0.0219 -0.5846 -0.0474
0.0354 -0.9019 0.0745
0.0097 0.1461 -0.0680
0.0415 -0.8352 0.0295
0.0435 -0.1326 -0.0837
0.0389 -0.8884 0.0636
0.0408 -0.0971 -0.0848
0.0356 -0.9027 0.0750
0.0305 -0.0014 -0.0841
0.0596 -0.9051 0.0649
0.0421 -0.8386 0.0311
0.0382 -0.0686 -0.0851
0.0368 -0.3359 -0.0711
-0.0436 0.8577 0.0038
0.0057 0.2776 -0.0583
0.0366 -0.8040 0.0159
0.0038 0.6933 -0.0273
0.0213 -0.6717 -0.0329
0.0406 -0.0953 -0.0848
0.0340 -0.0293 -0.0849
0.0218 -0.5899 -0.0466
0.0297 -0.7216 -0.0149
0.0447 -0.1505 -0.0826
0.0157 0.1024 -0.0750
-0.0088 0.7495 -0.0176
0.0179 -0.6388 -0.0418
0.0067 0.2312 -0.0614
0.0124 0.1253 -0.0713
0.0609 -0.9024 0.0624
0.0275 0.0212 -0.0830
0.0174 0.0906 -0.0766
-0.0400 0.8488 0.0019
0.0056 0.2820 -0.0581
0.0425 -0.1191 -0.0843
0.0297 -0.7213 -0.0150
0.0063 0.5405 -0.0407
0.0407 -0.8305 0.0274
0.0274 -0.7037 -0.0213
0.0277 0.0198 -0.0831
0.0433 -0.1302 -0.0839
0.0086 0.6618 -0.0319
0.0465 -0.8629 0.0429
0.0447 -0.8710 0.0491
-0.0436 0.8578 0.0038
0.0603 -0.9005 0.0614
-0.0307 0.8249 -0.0033
0.0294 -0.7183 -0.0161
0.0435 -0.1322 -0.0838
0.0396 -0.9064 0.0756
0.0092 0.6563 -0.0327
-0.0069 0.7417 -0.0190
0.0453 -0.1663 -0.0815
0.0531 -0.8822 0.0524
0.0374 -0.0607 -0.0851
0.0196 0.0761 -0.0783
0.0371 -0.3307 -0.0714
0.0186 0.0830 -0.0775
0.0383 -0.0690 -0.0851
0.0387 -0.0736 -0.0850
0.0044 0.4152 -0.0492
0.0241 -0.5424 -0.0524
0.0586 -0.8972 0.0599
-0.0472 0.8669 0.0059
0.0605 -0.9007 0.0614
0.0050 0.3167 -0.0557
0.0236 -0.6844 -0.0285
0.0058 0.2712 -0.0588
0.0222 -0.6767 -0.0312
0.0506 -0.8792 0.0515
0.0268 -0.5002 -0.0570
0.0280 -0.7074 -0.0200
0.0451 -0.8662 0.0458
0.0431 -0.1274 -0.0840
0.0044 0.3820 -0.0514
0.0070 0.6742 -0.0302
0.0053 0.2971 -0.0570
0.0203 -0.6130 -0.0441
0.0300 -0.7239 -0.0141
0.0027 0.6990 -0.0263
0.0454 -0.1685 -0.0814
-0.0251 0.8086 -0.0067
0.0093 0.6516 -0.0331
-0.0419 0.8535 0.0029
-0.0013 0.7177 -0.0232
0.0382 -0.0685 -0.0851
0.0428 -0.1235 -0.0842
0.0077 0.2072 -0.0634
-0.0267 0.8136 -0.0057
0.0059 0.6810 -0.0292
0.0454 -0.1673 -0.0815
0.0045 0.4417 -0.0474
0.0403 -0.0911 -0.0849
0.0237 0.0484 -0.0810
0.0256 -0.5189 -0.0550
0.0611 -0.9027 0.0625
0.0274 -0.7040 -0.0212
-0.0024 0.7225 -0.0223
-0.0018 0.7199 -0.0228
0.0612 -0.9027 0.0625
0.0308 -0.7351 -0.0101
0.0145 0.1102 -0.0738
0.0352 -0.9010 0.0741
0.0267 -0.7000 -0.0227
-0.0117 0.7606 -0.0156
0.0418 -0.1100 -0.0846
0.0304 -0.7298 -0.0120
-0.0070 0.7421 -0.0189
0.0334 -0.7731 0.0037
0.0065 0.6023 -0.0359
0.0381 -0.3142 -0.0725
0.0407 -0.8303 0.0273
0.0384 -0.0702 -0.0851
0.0366 -0.3401 -0.0708
0.0292 -0.7161 -0.0169
0.0092 0.6564 -0.0326
0.0047 0.4604 -0.0461
-0.0402 0.8493 0.0020
0.0063 0.5442 -0.0404
0.0086 0.1571 -0.0664
0.0383 -0.8161 0.0210
0.0257 -0.6949 -0.0246
0.0272 0.0234 -0.0828
0.0219 -0.6749 -0.0319
0.0096 0.6478 -0.0336
0.0189 -0.6552 -0.0380
0.0033 0.6960 -0.0268
0.0044 0.4230 -0.0487
0.0455 -0.1783 -0.0808
0.0440 -0.1404 -0.0833
0.0375 -0.8967 0.0700
0.0392 -0.2942 -0.0738
0.0403 -0.8283 0.0264
0.0412 -0.1019 -0.0847
0.0432 -0.1281 -0.0840
-0.0231 0.8019 -0.0080
0.0080 0.1803 -0.0651
0.0326 -0.0181 -0.0847
0.0453 -0.1645 -0.0817
-0.0415 0.8525 0.0027
-0.0283 0.8180 -0.0048
0.0193 0.0783 -0.0780
0.0322 -0.4126 -0.0652
0.0432 -0.1288 -0.0839
0.0447 -0.8821 0.0563
0.0434 -0.1314 -0.0838
-0.0490 0.8710 0.0068
0.0433 -0.1296 -0.0839
0.0082 0.6652 -0.0315
0.0356 -0.9011 0.0739
0.0580 -0.9064 0.0666
-0.0072 0.7427 -0.0188
0.0119 0.1287 -0.0708
0.0235 0.0493 -0.0809
0.0228 -0.6801 -0.0300
0.0589 -0.9062 0.0660
0.0072 0.5927 -0.0369
0.0415 -0.1059 -0.0847
0.0258 -0.6948 -0.0246
0.0340 -0.0294 -0.0849
0.0208 0.0680 -0.0791
0.0054 0.2941 -0.0572
0.0436 -0.1346 -0.0836
0.0272 0.0231 -0.0828
-0.0074 0.7437 -0.0186
0.0192 -0.6579 -0.0373
0.0224 0.0575 -0.0801
0.0231 0.0524 -0.0806
0.0282 -0.7089 -0.0195
0.0342 -0.0314 -0.0849
0.0350 -0.7904 0.0104
0.0313 -0.4282 -0.0639
0.0416 -0.8354 0.0296
0.0435 -0.1328 -0.0837
0.0237 -0.6845 -0.0285
0.0604 -0.9042 0.0639
0.0429 -0.1245 -0.0841
0.0467 -0.8641 0.0436
0.0400 -0.8267 0.0257
0.0431 -0.1270 -0.0840
0.0050 0.3150 -0.0559
-0.0270 0.8143 -0.0055
0.0157 0.1022 -0.0750
0.0434 -0.1311 -0.0838
0.0356 -0.8995 0.0728
0.0473 -0.8676 0.0455
0.0293 -0.7171 -0.0165
0.0336 -0.3894 -0.0671
-0.0345 0.8349 -0.0012
0.0270 -0.7017 -0.0221
0.0180 -0.6398 -0.0416
0.0611 -0.9026 0.0625
0.0070 0.6740 -0.0302
-0.0442 0.8593 0.0042
0.0395 -0.0824 -0.0850
0.0299 0.0035 -0.0839
0.0188 -0.6539 -0.0384
0.0272 -0.4939 -0.0576
0.0091 0.1517 -0.0671
0.0332 -0.7708 0.0028
0.0256 0.0347 -0.0820
0.0451 -0.1600 -0.0820
0.0099 0.1447 -0.0682
0.0045 0.3638 -0.0526
0.0399 -0.0868 -0.0849
0.0354 -0.8993 0.0728
0.0338 -0.0276 -0.0849
0.0165 0.0970 -0.0758
0.0341 -0.7819 0.0071
0.0436 -0.2135 -0.0788
0.0118 0.1294 -0.0706
0.0434 -0.2155 -0.0787
0.0349 -0.9008 0.0741
0.0049 0.4715 -0.0454
0.0207 -0.6683 -0.0340
0.0087 0.1562 -0.0666
0.0072 0.6727 -0.0304
0.0132 0.1191 -0.0724
0.0109 0.1360 -0.0696
0.0112 0.1338 -0.0699
-0.0029 0.7245 -0.0220
-0.0016 0.7190 -0.0229
0.0436 -0.1344 -0.0836
0.0531 -0.8819 0.0522
0.0073 0.6720 -0.0305
0.0106 0.1387 -0.0691
0.0054 0.6843 -0.0287
-0.0283 0.8180 -0.0048
0.0427 -0.2289 -0.0778
0.0531 -0.9092 0.0710
-0.0429 0.8560 0.0034
-0.0308 0.8250 -0.0033
0.0442 -0.1427 -0.0831
0.0178 -0.6353 -0.0426
0.0439 -0.8481 0.0356
0.0342 -0.3803 -0.0678
0.0448 -0.1532 -0.0824
0.0264 -0.5063 -0.0563
0.0453 -0.1854 -0.0803
0.0354 -0.7940 0.0118
0.0561 -0.9081 0.0688
0.0048 0.4635 -0.0459
0.0188 -0.6544 -0.0383
0.0064 0.2413 -0.0607
0.0455 -0.1702 -0.0813
0.0364 -0.3429 -0.0706
0.0361 -0.0484 -0.0851
0.0193 0.0780 -0.0781
0.0245 -0.6886 -0.0270
0.0305 -0.4402 -0.0628
0.0073 0.2133 -0.0628
-0.0335 0.8323 -0.0017
0.0339 -0.0289 -0.0849
0.0546 -0.8849 0.0535
0.0360 -0.8969 0.0708
-0.0362 0.8393 -0.0002
0.0359 -0.8973 0.0712
0.0463 -0.8606 0.0417
0.0425 -0.1191 -0.0843
0.0280 -0.7079 -0.0198
0.0208 -0.6686 -0.0340
0.0343 -0.7837 0.0078
0.0324 -0.7598 -0.0013
0.0455 -0.1826 -0.0805
0.0087 0.6610 -0.0321
-0.0251 0.8085 -0.0067
0.0096 0.6464 -0.0337
0.0216 0.0631 -0.0796
0.0210 -0.6698 -0.0336
0.0060 0.6802 -0.0293
0.0407 -0.0964 -0.0848
0.0604 -0.9048 0.0643
0.0359 -0.9024 0.0747
0.0290 -0.7146 -0.0174
0.0407 -0.0967 -0.0848
0.0214 -0.6726 -0.0326
0.0196 -0.6175 -0.0440
0.0439 -0.1383 -0.0834
0.0373 -0.0593 -0.0851
-0.0344 0.8345 -0.0013
0.0429 -0.8423 0.0328
0.0275 -0.4892 -0.0581
0.0065 0.6023 -0.0359
0.0329 -0.7675 0.0016
-0.0107 0.7560 -0.0164
0.0384 -0.0703 -0.0851
0.0018 0.7037 -0.0256
0.0051 0.6859 -0.0284
0.0142 0.1125 -0.0735
-0.0313 0.8263 -0.0030
0.0268 0.0260 -0.0826
0.0128 0.1224 -0.0718
0.0083 0.6246 -0.0350
0.0392 -0.2940 -0.0738
0.0374 -0.3265 -0.0717
-0.0112 0.7581 -0.0160
0.0180 -0.6419 -0.0412
0.0401 -0.0891 -0.0849
0.0182 -0.6480 -0.0399
-0.0396 0.8477 0.0016
0.0455 -0.1747 -0.0810
0.0340 -0.0297 -0.0849
0.0230 -0.6812 -0.0296
0.0337 -0.7764 0.0049
-0.0132 0.7665 -0.0145
0.0496 -0.8770 0.0505
0.0331 -0.0218 -0.0848
0.0352 -0.8999 0.0733
0.0418 -0.2495 -0.0766
0.0143 0.1116 -0.0736
0.0198 0.0749 -0.0784
0.0313 -0.0072 -0.0843
0.0045 0.4291 -0.0482
0.0364 -0.8025 0.0153
0.0087 0.6607 -0.0321
0.0260 -0.6961 -0.0242
0.0242 -0.5413 -0.0526
0.0286 0.0130 -0.0834
0.0347 -0.7876 0.0093
0.0244 -0.5372 -0.0530
0.0577 -0.9072 0.0673
0.0139 0.1144 -0.0732
0.0420 -0.2456 -0.0768
0.0449 -0.1553 -0.0823
0.0359 -0.8973 0.0712
0.0063 0.2463 -0.0604
0.0431 -0.2205 -0.0784
0.0078 0.6681 -0.0311
-0.0399 0.8485 0.0018
0.0337 -0.7767 0.0051
0.0044 0.3717 -0.0521
-0.0393 0.8469 0.0015
0.0289 -0.4663 -0.0604
0.0359 -0.9034 0.0753
0.0054 0.5055 -0.0430
0.0011 0.7067 -0.0251
0.0300 -0.4488 -0.0620
0.0283 -0.7099 -0.0191
-0.0388 0.8458 0.0012
0.0326 -0.7632 -0.0000
-0.0052 0.7344 -0.0203
0.0059 0.2661 -0.0591
0.0204 -0.6666 -0.0346
0.0407 -0.8303 0.0273
0.0480 -0.8691 0.0461
-0.0107 0.7569 -0.0163
0.0400 -0.0874 -0.0849
-0.0211 0.7952 -0.0092
0.0420 -0.1125 -0.0845
0.0060 0.2610 -0.0594
0.0434 -0.8458 0.0345
0.0283 -0.4758 -0.0594
0.0330 -0.7684 0.0019
0.0046 0.3413 -0.0541
0.0482 -0.8688 0.0458
0.0368 -0.9045 0.0757
0.0385 -0.3073 -0.0730
0.0044 0.4156 -0.0492
0.0374 -0.0605 -0.0851
0.0358 -0.9030 0.0752
-0.0119 0.7612 -0.0155
-0.0001 0.7123 -0.0241
0.0056 0.2833 -0.0580
0.0407 -0.0964 -0.0848
0.0317 -0.7487 -0.0053
-0.0077 0.7450 -0.0184
0.0410 -0.0995 -0.0848
0.0371 -0.3316 -0.0714
-0.0074 0.7437 -0.0186
0.0281 -0.7084 -0.0197
0.0224 0.0572 -0.0802
0.0361 -0.8964 0.0704
0.0495 -0.8750 0.0492
0.0355 -0.0427 -0.0851
0.0380 -0.0660 -0.0851
-0.0399 0.8484 0.0018
0.0444 -0.8768 0.0530
0.0080 0.6666 -0.0313
0.0333 -0.0232 -0.0848
0.0199 -0.6626 -0.0358
-0.0375 0.8425 0.0005
0.0058 0.5211 -0.0420
0.0310 -0.7383 -0.0090
0.0467 -0.8686 0.0464
-0.0030 0.7251 -0.0219
0.0091 0.6575 -0.0325
0.0442 -0.1432 -0.0831
0.0093 0.6540 -0.0329
0.0433 -0.2174 -0.0786
0.0315 -0.0093 -0.0844
0.0048 0.6878 -0.0281
-0.0395 0.8475 0.0016
-0.0264 0.8126 -0.0059
0.0386 -0.0720 -0.0851
0.0190 -0.6223 -0.0437
0.0281 -0.7083 -0.0197
0.0372 -0.0585 -0.0851
0.0424 -0.8398 0.0317
0.0060 0.6803 -0.0293
0.0350 -0.9001 0.0735
0.0230 -0.6811 -0.0297
0.0224 0.0572 -0.0802
0.0352 -0.8999 0.0733
0.0454 -0.1692 -0.0814
0.0449 -0.1551 -0.0823
0.0438 -0.1367 -0.0835
0.0449 -0.1548 -0.0823
0.0254 -0.5227 -0.0546
0.0375 -0.8106 0.0187
0.0093 0.6551 -0.0328
0.0224 0.0572 -0.0802
0.0360 -0.9027 0.0749
0.0186 0.0833 -0.0775
0.0239 0.0467 -0.0811
0.0351 -0.9006 0.0738
0.0427 -0.8419 0.0327
0.0267 -0.7002 -0.0227
0.0162 0.0986 -0.0755
-0.0429 0.8561 0.0035
-0.0408 0.8508 0.0023
0.0264 -0.5056 -0.0564
0.0238 0.0479 -0.0810
-0.0379 0.8434 0.0007
-0.0476 0.8682 0.0061
0.0413 -0.8337 0.0288
0.0378 -0.8122 0.0194
0.0337 -0.0266 -0.0849
0.0087 0.1559 -0.0666
0.0178 -0.6352 -0.0426
-0.0168 0.7797 -0.0121
-0.0067 0.7407 -0.0192
0.0044 0.3742 -0.0519
0.0230 -0.6810 -0.0297
0.0117 0.1304 -0.0705
0.0438 -0.2106 -0.0789
-0.0403 0.8495 0.0020
0.0035 0.6947 -0.0270
0.0182 -0.6313 -0.0429
0.0093 0.6556 -0.0327
0.0302 -0.7268 -0.0131
0.0424 -0.8406 0.0321
-0.0316 0.8272 -0.0028
0.0081 0.1939 -0.0644
0.0393 -0.0802 -0.0850
0.0399 -0.2833 -0.0745
0.0199 0.0741 -0.0785
0.0077 0.6690 -0.0309
0.0524 -0.8811 0.0520
0.0332 -0.7711 0.0029
-0.0334 0.8319 -0.0018
0.0428 -0.1223 -0.0842
0.0422 -0.8391 0.0314
0.0159 0.1009 -0.0752
0.0052 0.3055 -0.0565
0.0200 -0.6635 -0.0356
0.0364 -0.8025 0.0153
0.0427 -0.8421 0.0328
0.0150 0.1069 -0.0743
-0.0340 0.8336 -0.0015
0.0589 -0.9062 0.0661
0.0115 0.1315 -0.0703
0.0288 -0.7135 -0.0178
0.0076 0.6701 -0.0308
0.0393 -0.2936 -0.0739
0.0462 -0.8722 0.0490
0.0455 -0.1791 -0.0807
0.0543 -0.8845 0.0534
0.0084 0.6639 -0.0317
0.0238 -0.5475 -0.0519
0.0324 -0.0160 -0.0846
0.0049 0.3233 -0.0553
0.0451 -0.1595 -0.0820
0.0278 -0.7062 -0.0204
0.0441 -0.8725 0.0504
0.0080 0.6668 -0.0313
0.0589 -0.9062 0.0661
-0.0370 0.8412 0.0002
-0.0378 0.8433 0.0006
-0.0310 0.8256 -0.0032
0.0062 0.2512 -0.0601
0.0392 -0.0785 -0.0850
0.0046 0.4477 -0.0470
0.0091 0.6576 -0.0325
0.0374 -0.8095 0.0182
0.0446 -0.1488 -0.0827
0.0451 -0.1586 -0.0821
0.0180 -0.6314 -0.0430
0.0254 -0.6928 -0.0254
0.0148 0.1086 -0.0741
0.0293 0.0076 -0.0837
0.0227 -0.6796 -0.0302
0.0050 0.4759 -0.0451
0.0267 0.0266 -0.0826
0.0250 -0.6914 -0.0259
0.0401 -0.0894 -0.0849
0.0217 -0.6741 -0.0321
0.0093 0.1498 -0.0674
-0.0285 0.8187 -0.0046
0.0423 -0.1167 -0.0844
0.0335 -0.7741 0.0041
0.0359 -0.0461 -0.0851
0.0182 -0.6479 -0.0400
0.0089 0.1536 -0.0669
0.0308 -0.7355 -0.0100
0.0116 0.1311 -0.0704
0.0049 0.3219 -0.0554
0.0043 0.3874 -0.0511
0.0436 -0.8475 0.0354
0.0351 -0.9006 0.0738
-0.0475 0.8669 0.0059
0.0202 0.0723 -0.0787
0.0152 0.1057 -0.0745
0.0315 -0.7466 -0.0060
0.0061 0.5317 -0.0413
0.0285 -0.7108 -0.0188
0.0416 -0.1076 -0.0846
0.0366 -0.3401 -0.0708
0.0609 -0.9013 0.0616
0.0442 -0.1431 -0.0831
0.0221 -0.6764 -0.0313
0.0266 0.0276 -0.0825
0.0230 0.0533 -0.0805
0.0278 -0.4834 -0.0587
0.0226 -0.6788 -0.0305
0.0299 -0.4505 -0.0619
0.0354 -0.3590 -0.0694
0.0053 0.2981 -0.0570
0.0043 0.3947 -0.0506
0.0596 -0.8986 0.0604
0.0210 -0.6700 -0.0335
0.0382 -0.8154 0.0207
0.0335 -0.0255 -0.0848
0.0183 0.0852 -0.0773
0.0421 -0.8384 0.0310
0.0427 -0.8419 0.0327
0.0308 -0.4355 -0.0632
0.0186 -0.6522 -0.0389
0.0264 -0.5061 -0.0564
0.0000 0.7117 -0.0242
0.0391 -0.8877 0.0630
0.0211 0.0660 -0.0793
0.0304 -0.7293 -0.0122
0.0294 -0.7179 -0.0162
0.0288 -0.7135 -0.0178
-0.0362 0.8393 -0.0002
-0.0474 0.8671 0.0059
0.0306 -0.7318 -0.0113
0.0316 -0.4219 -0.0644
0.0363 -0.3439 -0.0705
-0.0067 0.7410 -0.0191
0.0533 -0.8834 0.0531
0.0479 -0.8672 0.0449
-0.0291 0.8206 -0.0042
0.0307 -0.0030 -0.0842
0.0091 0.6572 -0.0325
0.0226 -0.6789 -0.0305
0.0443 -0.8523 0.0379
0.0077 0.6691 -0.0309
-0.0223 0.7993 -0.0084
0.0217 0.0623 -0.0797
0.0043 0.4041 -0.0499
0.0197 -0.6617 -0.0361
0.0046 0.3410 -0.0541
0.0378 -0.0641 -0.0851
0.0253 -0.5243 -0.0544
0.0038 0.6932 -0.0273
0.0435 -0.8475 0.0355
0.0435 -0.1323 -0.0837
0.0304 -0.4416 -0.0627
0.0046 0.4525 -0.0467
0.0321 -0.0138 -0.0846
0.0306 -0.4391 -0.0629
-0.0167 0.7792 -0.0122
0.0351 -0.3644 -0.0690
0.0288 0.0117 -0.0835
0.0317 -0.7497 -0.0049
0.0414 -0.1045 -0.0847
-0.0120 0.7619 -0.0154
0.0180 0.0868 -0.0771
0.0364 -0.3431 -0.0706
0.0156 0.1029 -0.0749
0.0452 -0.8802 0.0548
0.0362 -0.9032 0.0751
0.0182 -0.6446 -0.0405
-0.0334 0.8321 -0.0018
0.0060 0.5299 -0.0414
-0.0313 0.8263 -0.0030
0.0176 0.0896 -0.0767
0.0053 0.2996 -0.0569
0.0227 -0.6793 -0.0303
0.0165 0.0968 -0.0758
0.0043 0.4007 -0.0502
0.0215 0.0631 -0.0796
0.0361 -0.8002 0.0144
0.0373 -0.0590 -0.0851
0.0104 0.1404 -0.0688
0.0035 0.6946 -0.0270
0.0441 -0.1417 -0.0832
0.0209 -0.6695 -0.0337
0.0451 -0.1583 -0.0821
-0.0087 0.7489 -0.0177
0.0384 -0.0706 -0.0851
0.0047 0.4534 -0.0466
0.0221 -0.6760 -0.0315
0.0068 0.6754 -0.0300
0.0355 -0.9029 0.0753
0.0616 -0.9026 0.0622
0.0360 -0.0471 -0.0851
